# .PCD v0.7 - Point Cloud Data file format
VERSION 0.7
FIELDS x y z intensity
SIZE 4 4 4 4
TYPE F F F F
COUNT 1 1 1 1
WIDTH 1384
HEIGHT 1
VIEWPOINT 0 0 0 1 0 0 0
POINTS 1384
DATA ascii
-12.703862 8.8167267 1.3708543 0
-4.7166343 5.0166698 1.5064168 0
-4.5659761 5.0165281 1.486714 0
-4.4531918 5.0137291 1.4718001 0
-4.2774034 5.0174766 1.4500724 0
-4.0174618 5.0167136 1.4178602 0
-3.8517265 5.0188098 1.3981934 0
-3.719974 5.0166335 1.3823711 0
-3.5604057 5.0160866 1.3638612 0
-3.4862523 5.0215783 1.3562751 0
-2.9325206 5.0160336 1.5477282 0
-2.8637569 5.0191312 1.5400258 0
-2.7380149 5.0183759 1.5250381 0
-2.57497 5.0195045 1.5065749 0
7.4319572 -2.4383731 1.5968215 0
7.4341183 -2.5630512 1.6049384 0
-2.4416966 5.0200753 1.4919156 0
-2.2713869 5.0187087 1.473534 0
7.4359126 -2.1449127 1.5815614 0
7.433074 -2.266336 1.587265 0
-2.0301805 5.0188403 1.4492359 0
-1.8563392 5.0176859 1.4324424 0
7.4313989 -1.8546156 1.5673395 0
7.4320297 -1.9869462 1.5732111 0
-1.7235041 5.0186586 1.4206758 0
-1.5574729 5.0203905 1.4068183 0
7.4331703 -1.7116363 1.562356 0
-1.4395864 5.0187039 1.396873 0
-1.2784805 5.0190797 1.3846945 0
7.4325294 -1.4270654 1.55335 0
7.4332662 -1.5571594 1.5571725 0
-1.0299561 5.0191026 1.3673682 0
-0.86359745 5.0191088 1.3568844 0
7.4312639 -1.1445514 1.5469794 0
7.4355178 -1.2622933 1.5501631 0
7.4303083 -0.8515048 1.5433742 0
7.4323134 -0.98040688 1.5450354 0
-0.27627718 5.0199308 1.5487576 0
-0.14563364 5.0158525 1.5421627 0
7.432826 -0.71086061 1.5434822 0
-0.10949695 5.0190897 1.5416367 0
7.4326115 -0.44086233 1.5442002 0
7.4331779 -0.55836105 1.5436225 0
-0.059338212 5.3224287 1.3880858 0
7.432529 -0.14587009 1.5478872 0
7.4334493 -0.27586061 1.5460962 0
-0.059327006 5.5941539 1.44853 0
7.4336762 0.032575011 1.5519023 0
-0.059164345 5.8862157 1.5135314 0
7.4353342 0.27255297 1.5589257 0
7.4333334 0.57780182 1.5696276 0
7.4342756 0.44168985 1.5644433 0
-0.060808182 6.3378186 1.3507566 0
4.2683187 3.1013174 1.3905021 0
4.4309897 3.099364 1.4195921 0
7.4336796 0.83516407 1.5814327 0
7.4324069 0.73557675 1.5763686 0
-0.060513496 6.5757065 1.3951628 0
4.5621843 3.0984597 1.4437809 0
4.7268777 3.0991898 1.475046 0
-0.060769498 6.8352699 1.4436451 0
4.840385 3.099473 1.4969251 0
5.001193 3.0985017 1.5282338 0
5.1398358 3.1004586 1.5560673 0
5.2641711 3.0975313 1.4681007 0
5.4286017 3.0984447 1.386788 0
5.5639305 3.0980623 1.4108704 0
5.723031 3.0988939 1.4396858 0
7.4330816 1.8597288 1.3842191 0
7.4314809 1.7911458 1.3794265 0
5.8508005 3.0992107 1.4630328 0
6.01896 3.0975771 1.4938456 0
7.4330831 2.0250046 1.3955564 0
6.2579012 3.0982549 1.5386008 0
6.4029341 3.0984242 1.566029 0
7.431673 2.2776058 1.4137361 0
6.7644215 3.1026962 1.3726633 0
7.4343343 2.5689352 1.4371184 0
7.4346962 2.451731 1.4277219 0
6.834106 3.1027546 1.3840549 0
6.9982886 3.1008584 1.4108559 0
7.1459408 3.1009536 1.4352773 0
7.4335375 2.8539093 1.4610999 0
7.4345136 2.73316 1.4508678 0
7.2727518 3.1004453 1.4563465 0
7.42767 3.0052567 1.4736187 0
-0.16125673 8.8231516 1.467871 0
0.0089233518 8.821579 1.4655006 0
0.12769461 8.8213367 1.4642373 0
0.29698774 8.8214588 1.4629744 0
0.55059475 8.8207493 1.4617409 0
0.71946728 8.8259182 1.4623361 0
0.85458881 8.8229389 1.4621052 0
1.0235605 8.8228617 1.4627748 0
1.1418693 8.8208847 1.4632134 0
1.2943726 8.8228703 1.4648597 0
1.4298868 8.820653 1.4659683 0
1.5659747 8.8217859 1.4679652 0
1.7366927 8.8249063 1.4710718 0
1.8560655 8.8220158 1.472784 0
2.0280766 8.8251629 1.4767634 0
2.147903 8.82022 1.4787028 0
2.2868457 8.8237457 1.4826964 0
2.4263134 8.8270197 1.4868929 0
2.547847 8.8231668 1.4898561 0
2.6885717 8.8255539 1.4945381 0
-4.6514807 -8.3809547 1.8355843 0
-4.5952044 -8.3852959 1.8299965 0
-4.4562764 -8.3821239 1.8141115 0
-4.2833729 -8.3818073 1.7952993 0
-4.171958 -8.3845024 1.7838982 0
-4.003788 -8.3818645 1.7659669 0
-3.7501817 -8.3808498 1.7402067 0
-3.5922236 -8.3826914 1.7250848 0
-3.4685426 -8.378602 1.7126142 0
-3.2996793 -8.3819847 1.6975698 0
-3.1660976 -8.3835812 1.685827 0
-2.9999101 -8.3812838 1.6709503 0
-2.7573662 -8.3811092 1.6506971 0
-2.6144888 -8.3812904 1.6392891 0
-1.2375734 -8.3788033 1.835241 0
-1.1672838 -8.3779259 1.8310544 0
-1.0007524 -8.3791294 1.8225009 0
-0.75321311 -8.3790274 1.8107121 0
-0.57654864 -8.3805199 1.8036916 0
-0.4545787 -8.3782339 1.7986501 0
-0.2934795 -8.3787308 1.7935019 0
-0.16017693 -8.3817968 1.7904011 0
-0.00035381317 -8.3800745 1.7862215 0
0.13250977 -8.377058 1.7828349 0
0.25128892 -8.3792763 1.7815448 0
0.40956131 -8.3803501 1.7799327 0
0.54124939 -8.3806515 1.7790884 0
0.71232539 -8.3793106 1.7783629 0
0.83075184 -8.381588 1.7791002 0
0.92285985 -8.3799362 1.7792078 0
-15.023876 8.5190792 1.5271572 0
-15.018898 8.665741 1.5324585 0
-14.89506 8.8156281 1.5291616 0
-10.18112 8.8179407 1.7137448 0
-10.032032 8.8208771 1.7003839 0
-9.8806429 8.8193016 1.6865737 0
-9.6964836 8.8193569 1.6700305 0
-9.5901861 8.8217688 1.6607279 0
-9.4067259 8.8169107 1.6440965 0
-4.4157295 5.0141335 1.7511872 0
-4.275238 5.0165339 1.7305158 0
-9.1635866 8.8185692 1.6228802 0
-9.0265951 8.8188419 1.610984 0
-4.0161538 5.016655 1.6925162 0
-3.850472 5.0187435 1.6691554 0
-8.8934202 8.8207073 1.5996422 0
-3.7352304 5.0170879 1.6527278 0
-3.5761371 5.0175095 1.6309359 0
-3.4388962 5.0215387 1.613217 0
-3.2693138 5.0176015 1.5902959 0
7.4334855 -2.8658142 1.6254576 0
-3.1497979 5.0168018 1.5748209 0
-3.0490317 5.0185485 1.5625409 0
7.4327149 -2.7134507 1.6146139 0
-2.5323732 5.0169597 1.7496474 0
-2.4523213 5.0166402 1.7393173 0
-2.2825735 5.0164824 1.718274 0
-2.0291784 5.0179944 1.6888839 0
-1.8560793 5.0183344 1.6698191 0
-1.7340486 5.0163131 1.6565396 0
-1.5685759 5.0196605 1.640841 0
-1.4386051 5.017179 1.6279156 0
-1.2780354 5.0188832 1.6141462 0
-1.1400387 5.0142965 1.6014277 0
-1.0178139 5.0170588 1.5926555 0
-0.86324006 5.0188446 1.5818306 0
7.4281006 -1.1624017 1.7955211 0
-0.73182064 5.0176415 1.5728117 0
-0.55913419 5.0181913 1.5625436 0
7.4340506 -0.84992152 1.7931247 0
7.4333601 -0.97885907 1.7941983 0
-0.44173878 5.019505 1.556483 0
-0.35790187 5.0256958 1.553893 0
7.4336553 -0.72489661 1.792617 0
-0.059649289 5.1571503 1.5755755 0
7.4297919 -0.48648566 1.7922637 0
7.4329529 -0.56265807 1.7926214 0
-0.059219778 5.3220472 1.6182653 0
-0.059694469 5.597743 1.6897219 0
-0.059847236 6.1040068 1.5620508 0
-0.059807837 6.3291054 1.6121994 0
7.4345193 0.88531566 1.5841575 0
-0.059477806 6.566329 1.6650628 0
7.4307456 1.1494584 1.5979627 0
7.4333029 1.0218546 1.5912592 0
-0.058953404 6.8178663 1.7211336 0
7.4325638 1.2784936 1.6063596 0
5.294044 3.096869 1.5865686 0
5.4284439 3.0998411 1.6145209 0
7.4326911 1.5658348 1.6257632 0
7.4333272 1.4475276 1.6176068 0
5.5617437 3.0978413 1.6417714 0
5.7378387 3.0979152 1.6786672 0
7.4304309 1.860384 1.6476268 0
7.4346986 1.7267807 1.6381348 0
5.8662806 3.0985224 1.7059636 0
6.0170817 3.0978127 1.7381614 0
6.150691 3.0956857 1.766686 0
7.4323416 2.0264277 1.6617594 0
6.4473772 3.0997863 1.5746517 0
7.4331155 2.2657228 1.6828842 0
6.5534768 3.0982225 1.5947353 0
6.7297497 3.0965266 1.6284559 0
7.432117 2.5696254 1.7113897 0
7.4340949 2.438715 1.6991265 0
6.8443713 3.0960677 1.6506144 0
6.9898477 3.0973542 1.6791703 0
7.1340747 3.0954661 1.7072575 0
7.4353356 2.8567693 1.7412516 0
7.4322319 2.7337701 1.7278932 0
7.2632546 3.0965607 1.7329167 0
7.4277287 3.0071344 1.7558442 0
-5.3152528 -8.3820705 1.9133742 0
-5.1859813 -8.3813219 1.8976965 0
-4.9974957 -8.3817539 1.8754827 0
-4.7726445 -8.3821487 1.8495325 0
-3.4728088 -8.3839951 2.0291071 0
-3.3003845 -8.3810568 2.0095005 0
-3.1651955 -8.37959 1.9947177 0
-3.0008733 -8.3809204 1.9779977 0
-2.7583656 -8.3810453 1.9539829 0
-2.5839112 -8.3809147 1.9374275 0
-2.4585397 -8.3794785 1.9257305 0
-2.3044732 -8.3791752 1.9121715 0
-2.1831143 -8.3799381 1.9021071 0
-2.0028524 -8.3785267 1.8873606 0
-1.7532549 -8.3809357 1.8691826 0
-1.5934212 -8.3801098 1.8578255 0
-1.4643092 -8.3794985 1.8492284 0
-1.3221645 -8.3790283 1.8402865 0
-11.671266 8.8202343 1.8538256 0
-11.578381 8.8170214 1.8446728 0
-11.403743 8.8172703 1.8279771 0
-11.147639 8.8181143 1.8036875 0
-10.976869 8.8158588 1.787398 0
-10.854959 8.8175068 1.77607 0
-10.69223 8.8176785 1.760877 0
-10.57201 8.8179359 1.7497181 0
-10.413382 8.8174925 1.7350247 0
-4.7343383 5.0169797 1.8007696 0
-4.5829039 5.0162964 1.7771199 0
-4.4754767 5.0200143 1.761251 0
-3.8490906 5.0185447 1.9443083 0
-3.7321038 5.0145245 1.9244652 0
-3.573667 5.0156622 1.8994198 0
-3.4487262 5.0152555 1.8798054 0
-3.2807007 5.0136333 1.8538787 0
7.4332037 -2.8641155 1.8852565 0
-3.0326443 5.0166101 1.8180356 0
-2.8616798 5.0171452 1.793903 0
7.4318614 -2.7116151 1.8726667 0
-2.7361829 5.0166631 1.7765951 0
-2.6126909 5.0160761 1.7599355 0
7.4334788 -2.4371347 1.8529578 0
7.4330826 -2.5611908 1.8615408 0
7.433187 -2.1549621 1.835081 0
7.432909 -2.2769198 1.8423207 0
7.4336238 -1.8533685 1.8195188 0
7.4340882 -1.9857049 1.8261553 0
7.4324841 -1.7099679 1.8130875 0
7.4328208 -1.4373291 1.8035557 0
7.4353709 -1.5676537 1.8083925 0
7.4349108 -1.1431289 1.7969975 0
7.4335017 -1.2723426 1.7992986 0
7.4387321 -0.68569213 1.7938544 0
7.4332137 -0.42355677 1.7938175 0
7.4312282 -0.14441741 1.7977272 0
7.4322815 -0.27436817 1.795552 0
7.4326539 0.03406322 1.8026438 0
-0.059307516 5.8879662 1.7649596 0
7.4329143 0.27375305 1.8106592 0
-0.060110688 6.1068473 1.8217666 0
7.4321337 0.56494737 1.8230294 0
7.4348354 0.43125916 1.8175025 0
-0.059319913 6.3251061 1.8783882 0
7.4319782 0.86136055 1.8390347 0
7.4315553 0.73703706 1.8318 0
-0.060313582 6.5747032 1.9432191 0
7.432642 1.0359489 1.8502343 0
7.432622 1.2802031 1.8674111 0
7.433423 1.1519458 1.8582633 0
7.4327979 1.580878 1.891373 0
7.4333115 1.4492366 1.8806173 0
7.4314775 1.8625648 1.9161863 0
7.4321604 1.7409794 1.9052025 0
7.4333768 2.0286624 1.9327587 0
6.2725954 3.0959671 1.7933184 0
6.4396253 3.0960474 1.8300351 0
7.4324536 2.2815673 1.9585731 0
6.5683799 3.0952876 1.8584703 0
6.7269197 3.0964339 1.8940585 0
6.8399134 3.0949874 1.9192593 0
6.9603057 3.0958798 1.9466314 0
-0.22877073 8.8172359 1.8171111 0
-0.14382732 8.8190298 1.8159586 0
0.0090411305 8.8196678 1.8137448 0
0.12765217 8.8214588 1.8125639 0
0.29695168 8.8207989 1.8108488 0
0.5504635 8.8200655 1.8093017 0
0.71929395 8.8212004 1.8092628 0
0.83748031 8.8212938 1.8094782 0
1.0063107 8.8185625 1.8097433 0
1.1415387 8.8195982 1.8109277 0
1.294044 8.8223505 1.8130772 0
1.4295809 8.8210583 1.8145926 0
1.548447 8.8201141 1.8163321 0
1.7187459 8.8202248 1.8195202 0
1.8553953 8.8199539 1.822441 0
2.0272534 8.822588 1.8272095 0
2.1477358 8.822505 1.8304895 0
2.2856224 8.8195505 1.8341452 0
2.4243984 8.8193693 1.8386209 0
2.5472112 8.8229122 1.8436484 0
2.6869891 8.8208799 1.848531 0
-3.9512663 -8.3836489 2.0848479 0
-3.7534122 -8.3839607 2.0613191 0
-3.591805 -8.3796654 2.0416501 0
-0.75435752 -8.382288 2.0967615 0
-0.57675427 -8.3790789 2.0872793 0
-0.45571345 -8.3827724 2.0830812 0
-0.29411834 -8.3805866 2.0763426 0
-0.16007727 -8.3780231 2.0711696 0
-0.00071597099 -8.380682 2.0675168 0
0.13167948 -8.3840694 2.0653417 0
0.25100726 -8.3797913 2.0620413 0
0.42241427 -8.383173 2.0606616 0
0.55427301 -8.378747 2.0584121 0
0.71218681 -8.3818655 2.0588696 0
0.83058876 -8.3778477 2.0579839 0
0.92276442 -8.3798075 2.0590959 0
-14.294433 8.814167 2.1149752 0
-14.122664 8.8138008 2.0973415 0
-13.898719 8.8139915 2.0744791 0
-13.734674 8.8148003 2.057838 0
-13.626125 8.8148642 2.0468316 0
-13.464724 8.814415 2.0304844 0
-13.309076 8.816412 2.0149229 0
-13.150528 8.8145819 1.9988912 0
-12.998336 8.8157396 1.9837377 0
-12.846773 8.8155718 1.9686247 0
-12.699576 8.8171329 1.9541076 0
-4.7305865 5.0146899 2.096278 0
-4.5817876 5.0167665 2.0698237 0
-4.451417 5.0150523 2.0462997 0
-4.2726731 5.0151815 2.0151105 0
-9.1555691 8.8136034 2.1133163 0
-8.9879456 8.8169813 2.0948601 0
-4.0136952 5.0152292 1.970999 0
-8.8551235 8.8188143 2.0802698 0
-0.060081065 6.8293447 2.0093505 0
7.4341497 2.5724936 1.9912205 0
7.4326553 2.454345 1.9774357 0
7.082294 3.0960789 1.9743916 0
7.130074 3.0948553 1.9851369 0
7.4328799 2.8572865 2.0248225 0
7.4326115 2.7358422 2.0100527 0
7.259057 3.0959079 2.0148542 0
7.427701 3.0090137 2.042649 0
-15.017931 8.5194511 2.1729712 0
-15.019234 8.4089203 2.166908 0
-15.020328 8.6705437 2.1818087 0
-14.886716 8.8143721 2.1761727 0
-14.764728 8.813776 2.1634812 0
-14.58743 8.8147621 2.1451969 0
-14.406903 8.8120413 2.1264145 0
-9.5807228 8.8158426 2.1619332 0
-9.4046106 8.8178387 2.1419911 0
-0.22880793 8.8180666 2.1710835 0
-0.14355975 8.816453 2.1689429 0
0.026003301 8.8194666 2.1665723 0
0.14476883 8.8179169 2.1644433 0
0.29700851 8.8179941 2.1627884 0
0.55036974 8.8173981 2.1609581 0
0.71911502 8.817296 2.1606205 0
0.83721936 8.8175354 2.1608973 0
1.0061182 8.8205433 2.1624801 0
1.1412529 8.8194036 2.1633878 0
1.2936451 8.8206892 2.1655989 0
1.4291204 8.8193998 2.1673837 0
1.5479068 8.8181992 2.1693785 0
1.7183659 8.8205519 2.1736517 0
1.8548756 8.8192387 2.1768713 0
2.0262141 8.8184175 2.1817372 0
2.1466389 8.8185225 2.1856606 0
2.2851129 8.8197756 2.190938 0
2.4408481 8.8172255 2.1964097 0
2.562808 8.8163214 2.2013888 0
2.68611 8.8197298 2.2076657 0
-2.8783276 -7.595058 -0.38165909 0
-2.7255218 -7.6795998 -0.38248125 0
-2.5469306 -7.7729869 -0.38346076 0
-2.3649681 -7.8597898 -0.38435531 0
-2.1800513 -7.9399481 -0.38518158 0
-1.9934003 -8.0159779 -0.3860617 0
-1.8031511 -8.0824194 -0.38672712 0
-1.6118162 -8.1451826 -0.38747567 0
-1.4191051 -8.2031717 -0.38826379 0
-1.2241919 -8.2529411 -0.38890481 0
-1.0411489 -8.2941723 -0.38949209 0
-3.5802808 -7.1252284 -0.37722537 0
-3.4185467 -7.2445545 -0.37827957 0
-3.2422891 -7.3669248 -0.37941295 0
-3.0746691 -7.4785748 -0.38057482 0
-2.9706101 -7.5399804 -0.3810831 0
-0.93653113 -8.3171644 -0.38989779 0
-0.83069175 -8.33428 -0.39010549 0
-0.64576918 -8.3637819 -0.39061961 0
-4.0385537 -6.7350917 -0.37374058 0
-3.8997502 -6.860508 -0.37482598 0
-3.7354112 -6.997385 -0.37594315 0
-0.53769356 -8.366827 -0.39031735 0
-0.41647047 -8.3683758 -0.39000255 0
-0.2823289 -8.370348 -0.38975593 0
-3.9834609 -6.7730207 -0.37367782 0
-0.17499 -8.3676195 -0.38944736 0
0.011140466 -8.3684435 -0.38936993 0
0.20960349 -8.3684931 -0.38949853 0
-4.1064205 -6.6708231 -0.37318856 0
0.31556773 -8.3620224 -0.38934356 0
0.43352792 -8.3676367 -0.38993093 0
0.6566903 -8.3670826 -0.39072397 0
0.82704604 -8.3682175 -0.39162612 0
0.9056567 -8.3673496 -0.39204422 0
0.91170269 -5.8546095 -0.26529688 0
-0.91254789 -4.6958222 -0.36427185 0
-0.75209111 -4.7652292 -0.36505702 0
-0.56509787 -4.8344822 -0.36582106 0
-0.42198092 -4.8819752 -0.36649349 0
-1.7446296 -4.1717381 -0.35917601 0
-1.6336877 -4.260181 -0.35999075 0
-1.4726539 -4.3770075 -0.36106232 0
-1.2912533 -4.4956264 -0.36228347 0
-1.1173229 -4.5930228 -0.36313793 0
-0.99223262 -4.6553469 -0.3636421 0
-0.34096497 -4.9019489 -0.36653852 0
-0.17672974 -4.9438171 -0.36718291 0
0.013321996 -4.9803257 -0.36766377 0
0.22261471 -5.0125933 -0.36841878 0
0.42707625 -5.0283613 -0.36871654 0
-1.87608 -4.0546894 -0.35798943 0
-1.8261213 -4.1034045 -0.35865486 0
0.53580463 -5.0281339 -0.36845657 0
0.64493078 -5.034946 -0.36912367 0
0.82717669 -5.0313568 -0.36943588 0
0.91123205 -4.8085723 -0.28199741 0
0.91090977 -4.1241422 -0.29235819 0
-0.79702038 -3.2526064 -0.35478568 0
-0.63535112 -3.3577495 -0.35571587 0
-0.4654358 -3.4514647 -0.35656652 0
-0.28313798 -3.5340569 -0.35724291 0
-0.10449481 -3.6020448 -0.35807899 0
0.096928358 -3.6604934 -0.35873449 0
0.2823661 -3.699363 -0.35923582 0
0.44117951 -3.7231965 -0.35966825 0
-0.95802003 -3.1280828 -0.35358191 0
-0.86377054 -3.2019904 -0.3541356 0
0.5441528 -3.732048 -0.35979751 0
0.70478725 -3.7380974 -0.35999903 0
0.93054163 -3.7588868 -0.34238613 0
1.0911607 -3.8609984 -0.2717616 0
1.3017557 -3.8607683 -0.27510774 0
1.1504757 -3.7065279 -0.36036947 0
1.3469614 -3.6703122 -0.3605445 0
1.5220096 -3.8591647 -0.27983257 0
1.7409672 -3.8598075 -0.28599668 0
1.9158797 -3.8617659 -0.2919066 0
-4.098031 -1.359997 -0.24400544 0
-3.948153 -1.3957266 -0.23718339 0
-0.021386802 -2.8923271 -0.3534303 0
0.12596548 -2.9479799 -0.35397428 0
1.4594278 -3.6417432 -0.3604995 0
1.6179192 -3.5909481 -0.36029926 0
2.0119996 -3.8579991 -0.29509309 0
2.1590364 -3.8596151 -0.30102679 0
2.375684 -3.859797 -0.31041706 0
2.5073402 -3.8601635 -0.31658006 0
-4.1001854 -1.2297585 -0.24378432 0
-3.7345319 -1.3962007 -0.22729212 0
-3.5342779 -1.3962966 -0.21802406 0
-3.4063544 -1.3958147 -0.2121049 0
-0.52514082 -2.5862639 -0.3502714 0
-0.38017696 -2.6949096 -0.35132736 0
-0.21570975 -2.7961209 -0.35225898 0
-0.081257522 -2.8625259 -0.35260916 0
0.17136699 -2.9588091 -0.3535893 0
0.35534424 -3.0079639 -0.35440454 0
0.54176784 -3.0407147 -0.35520834 0
0.7626093 -3.0529792 -0.35534942 0
0.90988594 -3.0499828 -0.35551879 0
1.7355812 -3.5480263 -0.36018762 0
1.855813 -3.4953511 -0.35997471 0
2.6168559 -3.8582942 -0.32186142 0
2.8085496 -3.8587563 -0.33188459 0
2.9994109 -3.8588433 -0.34243625 0
-4.1014786 -0.90958214 -0.24375196 0
-4.1012311 -1.0132895 -0.2436638 0
-3.290607 -1.3960053 -0.20675465 0
-3.1059093 -1.3566524 -0.30251747 0
-2.9356725 -1.3951609 -0.27916205 0
1.0309486 -3.0371609 -0.35536474 0
1.2080137 -3.0084271 -0.35558555 0
1.3242793 -2.9829383 -0.35576054 0
1.9870887 -3.4300394 -0.35952303 0
2.1069191 -3.3616419 -0.35915715 0
3.0981839 -3.8565886 -0.34795898 0
3.247972 -3.8593934 -0.3044652 0
3.3797596 -3.8596215 -0.27323386 0
-4.1001444 -0.79262346 -0.24395238 0
-3.0976295 -1.0797081 -0.33532307 0
-3.0973167 -1.1834843 -0.3357451 0
-2.6970012 -1.3952169 -0.30492595 0
-2.4585836 -1.3949034 -0.2856901 0
-2.3118663 -1.3941216 -0.27386206 0
-0.21498197 -2.2834747 -0.34850606 0
-0.051171899 -2.3944535 -0.34968361 0
0.11979246 -2.4812179 -0.35026887 0
0.31415659 -2.5537245 -0.35104975 0
0.50132501 -2.6009679 -0.35195047 0
0.69610804 -2.6240849 -0.3522189 0
0.88930988 -2.6262305 -0.35259384 0
1.447825 -2.9415796 -0.35529953 0
1.5886121 -2.8906803 -0.35533303 0
2.2385578 -3.2780983 -0.35869306 0
2.3393252 -3.204972 -0.35817954 0
-4.1008244 -0.57474983 -0.24482776 0
-3.0879409 -0.97048616 -0.33439317 0
-2.2182052 -1.394846 -0.26633614 0
-1.9863427 -1.3717149 -0.2897225 0
-1.8267503 -1.3923167 -0.28324035 0
-1.7130148 -1.3953278 -0.31796697 0
-0.062251747 -2.0312901 -0.34666258 0
0.053505599 -2.1139085 -0.3477037 0
0.2341395 -2.2118871 -0.34859425 0
0.40490758 -2.2755878 -0.3492538 0
0.61693728 -2.322849 -0.34995744 0
0.75158501 -2.3380256 -0.3505691 0
0.99133408 -2.616406 -0.35227922 0
1.1526928 -2.5902972 -0.3525795 0
1.2948664 -2.5561202 -0.35270023 0
1.7376567 -2.8189011 -0.35497284 0
1.8411744 -2.7611272 -0.35451946 0
2.4740748 -3.0988169 -0.35779348 0
-4.0997462 -0.31154186 -0.24644074 0
-4.100152 -0.41965672 -0.24568151 0
-3.0661974 -0.75976813 -0.33301988 0
-1.9218807 -1.1920862 -0.33855721 0
-1.5868506 -1.3954329 -0.2596997 0
-1.3993921 -1.3956257 -0.25471756 0
-1.2112534 -1.3888662 -0.30474502 0
0.13216496 -1.9128766 -0.34673765 0
0.30447453 -2.010668 -0.34748253 0
0.48046875 -2.0775952 -0.34826252 0
0.68652153 -2.1186614 -0.34873053 0
0.85589236 -2.3367047 -0.35029143 0
1.0308598 -2.3199332 -0.35044172 0
1.174135 -2.2901649 -0.35007864 0
1.4059668 -2.515708 -0.35235927 0
1.5570157 -2.448807 -0.3518464 0
1.9564834 -2.6849616 -0.35405555 0
2.5901761 -2.9959586 -0.35730335 0
2.6093729 -2.9801533 -0.35744712 0
-4.1018987 -0.15799302 -0.24786906 0
-3.0324066 -0.56437826 -0.33153424 0
-1.9232235 -0.9813717 -0.33702973 0
-1.2675707 -1.2335491 -0.33977908 0
-1.153141 -1.3757461 -0.30321613 0
-0.94556588 -1.3831971 -0.27398863 0
-0.75868362 -1.3906868 -0.27626255 0
-0.60678655 -1.3950759 -0.2762453 0
0.78608268 -2.1204946 -0.34720027 0
0.90282792 -2.1220927 -0.3487142 0
1.0995485 -2.0930161 -0.34872365 0
1.2994093 -2.2522986 -0.35046777 0
1.4324583 -2.1969211 -0.35021305 0
1.6965066 -2.3698249 -0.3515892 0
1.7966392 -2.3044953 -0.35138953 0
2.0901306 -2.5877085 -0.35373953 0
2.1662524 -2.5221348 -0.35335046 0
-4.101861 0.059808731 -0.25014657 0
-2.9909396 -0.36724886 -0.33031908 0
-1.905313 -0.7293244 -0.3354885 0
-1.9141448 -0.83511615 -0.33592337 0
-1.2815375 -1.0230017 -0.33820522 0
-0.86110216 -1.1832678 -0.33997074 0
-0.57455689 -1.1978959 -0.34062558 0
-0.51176339 -1.3593496 -0.30236244 0
-0.31876653 -1.3814085 -0.28759488 0
-0.1132943 -1.3948206 -0.26160508 0
0.046592772 -1.544536 -0.25573286 0
0.22330791 -1.5451019 -0.23898843 0
1.2159443 -2.0625334 -0.34906352 0
1.3502088 -2.004864 -0.34856254 0
1.5741531 -2.1145625 -0.34954607 0
1.679666 -2.0409367 -0.34877419 0
1.8676031 -2.2491243 -0.35113916 0
-4.1014967 0.29651207 -0.25313857 0
-4.102715 0.18558735 -0.25169975 0
-2.9371707 -0.17184216 -0.3289986 0
-1.8777602 -0.57188666 -0.33414206 0
-1.2720582 -0.75918603 -0.33666685 0
-1.2790198 -0.86162895 -0.33709884 0
-0.87840945 -0.86966389 -0.33790144 0
-0.87749046 -0.97500336 -0.33838284 0
-0.59260553 -1.0670968 -0.33964771 0
-0.37702304 -1.1261344 -0.34032673 0
-0.35052496 -1.2354375 -0.34058237 0
-0.0050833821 -1.3947769 -0.25687185 0
0.073535204 -1.3944879 -0.24349676 0
1.4838271 -1.9304979 -0.34791633 0
1.5712097 -1.8663964 -0.34722263 0
1.7158482 -2.0144324 -0.34909597 0
-4.1021981 0.48754317 -0.25600991 0
-2.8742256 0.016634941 -0.32772845 0
-1.834415 -0.37610972 -0.33293271 0
-1.2431273 -0.58868396 -0.33514154 0
-0.86508602 -0.74693149 -0.33663654 0
-0.59718961 -0.83413029 -0.33788565 0
-0.39683229 -0.93088698 -0.3390846 0
1.4166321 -1.5428984 -0.24189685 0
1.4689445 -1.5432887 -0.2478755 0
-4.1010447 0.78416687 -0.26102927 0
-4.1007996 0.67460281 -0.25905463 0
-2.8017738 0.20387799 -0.32657424 0
-1.7766378 -0.1861887 -0.33173519 0
-1.199178 -0.40770593 -0.33391106 0
-0.82982963 -0.54581112 -0.33538079 0
-0.56462461 -0.60515583 -0.33615971 0
-0.4866814 -0.68525821 -0.33663762 0
-0.38988215 -0.76807225 -0.33784124 0
1.5876098 -1.4772344 -0.25563428 0
1.6991808 -1.5436305 -0.2637141 0
-4.1022854 0.87631065 -0.26283118 0
-2.7349074 0.35515517 -0.3256534 0
-1.7073145 -0.0088635087 -0.3304911 0
-1.1367621 -0.22452849 -0.3326489 0
-0.77440161 -0.3640624 -0.3341077 0
-0.52217215 -0.45881268 -0.33519426 0
-0.33705419 -0.5316757 -0.33593252 0
1.6842952 -1.3923429 -0.26434347 0
1.8192935 -1.3931916 -0.27495724 0
2.0242882 -1.3866674 -0.28698358 0
2.1763108 -1.3910515 -0.28517926 0
-4.1010427 1.1929746 -0.26933509 0
-2.6040785 0.60334629 -0.32394841 0
-1.5954175 0.20888299 -0.32836401 0
-1.0397046 -0.011694133 -0.33141172 0
-0.68197638 -0.1547817 -0.33285445 0
-0.43819684 -0.26369715 -0.33392477 0
-0.27732044 -0.32269663 -0.33460853 0
-0.20645791 -0.25578117 -0.33344468 0
2.0240958 -1.1213655 -0.34302974 0
2.0851653 -1.225976 -0.34390175 0
2.2514431 -1.36116 -0.30898845 0
2.4275911 -1.3698037 -0.30363363 0
2.7992544 -1.4511201 -0.346533 0
3.3560686 -1.6397462 -0.34881663 0
-4.1007514 1.398555 -0.27403644 0
-4.100585 1.2845681 -0.27137315 0
-2.5230439 0.74064702 -0.32318178 0
-1.5078084 0.35828549 -0.32743034 0
-0.94791597 0.14197725 -0.33031172 0
-0.58517116 0.0037633181 -0.33173603 0
-0.39225525 -0.17100054 -0.33448786 0
-0.32265192 -0.1000855 -0.33305171 0
-0.14466983 -0.16407925 -0.33367202 0
2.0392857 -0.99865955 -0.34239852 0
2.2239654 -1.0651191 -0.34292918 0
2.4727123 -1.1724508 -0.34424865 0
2.8366094 -1.2384558 -0.34494177 0
2.8231835 -1.3283819 -0.34559801 0
3.386838 -1.4686686 -0.3474603 0
3.3726282 -1.5575069 -0.34822923 0
4.3716788 -1.8859749 -0.35270703 0
6.6567445 -2.6843967 -0.36214283 0
-4.1009102 1.5573454 -0.27791959 0
-2.4067411 0.91514176 -0.32208708 0
-1.4346898 0.47464079 -0.3270705 0
-1.3728681 0.55522913 -0.32631403 0
-0.87487119 0.25005358 -0.32977697 0
-0.82190007 0.31642121 -0.32925603 0
-0.50222713 0.11969662 -0.33135995 0
-0.44106585 0.18909222 -0.33080164 0
-0.19992954 0.065319598 -0.33189374 0
-0.003123045 -0.010674596 -0.33249855 0
2.0339799 -0.76244473 -0.34061438 0
2.2294352 -0.84818757 -0.34123915 0
2.4883792 -0.941836 -0.34257138 0
2.4870951 -1.0568156 -0.34373373 0
2.850111 -1.095862 -0.34414208 0
3.4049332 -1.3135531 -0.34625369 0
4.409831 -1.6016865 -0.35069686 0
4.3999753 -1.7063642 -0.35161111 0
6.6729546 -2.556284 -0.36137074 0
-4.101244 1.7644506 -0.28327331 0
-2.3028462 1.055723 -0.32123655 0
-2.2383969 1.1316633 -0.32049215 0
-1.2632451 0.68974966 -0.32551944 0
-0.68545288 0.47064513 -0.32852319 0
-0.29229134 0.33246475 -0.32985973 0
-0.074454188 0.18208247 -0.33134529 0
0.047046363 0.21820027 -0.33087465 0
0.21193576 0.14895982 -0.3317419 0
1.9848807 -0.53018892 -0.33920175 0
2.1376262 -0.59999251 -0.33983314 0
2.2173433 -0.70492047 -0.34056643 0
2.475636 -0.7434684 -0.34098914 0
2.8513823 -0.87998968 -0.34270471 0
3.4172261 -1.0910581 -0.34468263 0
4.4238901 -1.4687796 -0.35014257 0
6.6918368 -2.3098221 -0.35955524 0
6.6844249 -2.4166803 -0.36031684 0
-4.4391212 2.1970665 -0.30864629 0
-4.1017289 1.9101508 -0.28722218 0
-2.1505139 1.2414961 -0.32024869 0
-1.11813 0.84692019 -0.32484132 0
-1.0396206 0.91667396 -0.3239719 0
-0.56446153 0.58224612 -0.32758114 0
-0.47357589 0.65731233 -0.32725704 0
-0.18655652 0.41884333 -0.32953322 0
-0.079547048 0.48848754 -0.32891876 0
0.15616745 0.33372074 -0.33060831 0
0.33448219 0.27266127 -0.33127564 0
0.50585401 0.27128965 -0.33113006 0
1.8495097 -0.24662226 -0.33672982 0
2.002526 -0.34500313 -0.33764121 0
2.1451185 -0.42647883 -0.33860326 0
2.4236286 -0.48304358 -0.33900964 0
2.4562798 -0.60651684 -0.34024951 0
2.8204439 -0.61160207 -0.34060013 0
2.8402259 -0.72943956 -0.3417283 0
3.4081922 -0.8256439 -0.34278676 0
3.4161325 -0.93004513 -0.3436788 0
4.4296141 -1.2584507 -0.3485465 0
6.7005582 -2.1395464 -0.35837108 0
-4.4011307 2.2365527 -0.30826765 0
-4.3311291 2.3183308 -0.30791029 0
-2.0052576 1.3970733 -0.31935972 0
-0.95229346 0.99540883 -0.32391107 0
-0.32669491 0.75864857 -0.32660386 0
-0.22280806 0.82334524 -0.32641825 0
0.056248069 0.56500369 -0.32864395 0
0.18642914 0.62290043 -0.3283563 0
0.40877613 0.43688601 -0.33010855 0
0.58570629 0.44121248 -0.33033744 0
0.75818759 0.31315798 -0.33161873 0
0.97276986 0.3048647 -0.3316347 0
1.1590874 0.26704234 -0.33219993 0
1.3611794 0.18898684 -0.33293921 0
1.5308926 0.088045418 -0.3338846 0
1.6908047 -0.048623681 -0.33505541 0
1.9056959 -0.053038239 -0.33532503 0
2.0297828 -0.1873017 -0.33666921 0
2.3189924 -0.20415545 -0.3370828 0
2.3707454 -0.32216716 -0.33790246 0
2.7451611 -0.32392669 -0.3381061 0
2.7799811 -0.4370845 -0.33918375 0
3.3899133 -0.66285139 -0.34176448 0
4.4210262 -0.98468369 -0.34652096 0
4.4274149 -1.0866778 -0.3473613 0
6.7049675 -1.9276071 -0.35686111 0
-4.1991172 2.4599578 -0.30710161 0
-1.906492 1.4927711 -0.31873426 0
-1.8269928 1.5678482 -0.31850332 0
-0.80121464 1.1108282 -0.32310724 0
-0.69946474 1.1814899 -0.32283106 0
-0.092269421 0.89038974 -0.32631576 0
0.30657589 0.66452259 -0.32799721 0
0.47285306 0.7068705 -0.32806501 0
0.69244355 0.49143976 -0.32979894 0
0.82178217 0.49678665 -0.33012921 0
1.0355126 0.47935051 -0.33041933 0
1.2390331 0.43340117 -0.33130136 0
1.412734 0.36550874 -0.33185545 0
1.5966971 0.26245493 -0.332764 0
1.769623 0.12834471 -0.33401826 0
1.9302804 0.080758452 -0.33417171 0
2.1587417 0.058620214 -0.33495158 0
2.2552419 -0.084732056 -0.33616215 0
2.6389577 -0.05991137 -0.33649784 0
2.6947634 -0.18458074 -0.33750418 0
3.3341784 -0.39133704 -0.33957428 0
3.3615022 -0.50654483 -0.34047547 0
4.4090838 -0.84007865 -0.34556282 0
6.7036977 -1.6754147 -0.35518557 0
6.7069707 -1.7909349 -0.35602865 0
-4.080339 2.5829024 -0.30648479 0
-4.0040565 2.6572509 -0.30607197 0
-1.6635818 1.7037084 -0.31769213 0
-0.56583792 1.2637391 -0.32261571 0
-0.4482711 1.3299267 -0.32255796 0
0.030803978 0.94567019 -0.3261705 0
0.15363389 0.98700649 -0.32584232 0
0.31187493 1.030185 -0.32535818 0
0.5912444 0.73396581 -0.32924476 0
0.70617133 0.73815697 -0.32825026 0
0.91844642 0.73774236 -0.3285715 0
1.129038 0.70987493 -0.32893214 0
1.3186492 0.66072661 -0.32942626 0
1.5047441 0.58956867 -0.33032164 0
1.6768622 0.49788839 -0.33108893 0
1.847074 0.38025802 -0.33221072 0
2.0066764 0.23748404 -0.33351362 0
2.489923 0.1914646 -0.3343209 0
2.5733523 0.058929682 -0.3354795 0
3.2414656 -0.10023022 -0.3373147 0
3.2885511 -0.22534227 -0.3386583 0
4.3647947 -0.53850353 -0.34328598 0
4.3840771 -0.65627468 -0.34408441 0
6.6937056 -1.487417 -0.35378143 0
-3.8955183 2.7598476 -0.30556196 0
-1.4742844 1.8437607 -0.31693605 0
-0.31255203 1.3903697 -0.32203764 0
-0.18746859 1.4424396 -0.32187065 0
0.43457419 1.0563459 -0.3255561 0
0.62185097 1.0785661 -0.32542816 0
0.76292324 1.0854733 -0.3254742 0
1.3668623 0.65160495 -0.330726 0
1.4416931 0.6226235 -0.33092049 0
2.2026486 0.52686304 -0.33158684 0
2.3029652 0.42444402 -0.33245522 0
2.4260876 0.28005844 -0.33372131 0
3.1252244 0.16756696 -0.33562341 0
3.185998 0.036894619 -0.33646387 0
4.3324356 -0.38521326 -0.34216771 0
6.6696177 -1.2183698 -0.35172212 0
6.6787686 -1.3315686 -0.35244828 0
-3.7470093 2.8928118 -0.30488455 0
-3.6648936 2.9590487 -0.30439427 0
-1.3257663 1.9432056 -0.31648105 0
-1.2155509 2.0112073 -0.31627154 0
-0.066782355 1.4848168 -0.32182777 0
0.086704314 1.5301089 -0.32173434 0
0.86510891 1.0867057 -0.32609093 0
1.0475943 1.0705249 -0.32628843 0
1.2519952 1.0345058 -0.32682541 0
1.4495237 0.97905999 -0.32755265 0
1.6174634 0.91408712 -0.32825825 0
1.8032789 0.81984419 -0.32896528 0
1.9822989 0.70750624 -0.33017021 0
2.1148996 0.60567147 -0.3310833 0
2.9842656 0.4069497 -0.33353946 0
3.0671051 0.27257735 -0.33470556 0
4.2642288 -0.12778121 -0.34029639 0
4.2972965 -0.24729741 -0.34101859 0
6.6507697 -1.0445313 -0.35055995 0
-3.5464082 3.0606198 -0.30410618 0
-1.0820777 2.0856216 -0.31596959 0
-0.96675092 2.1431556 -0.31562981 0
0.20838153 1.5586565 -0.32171676 0
0.38220134 1.5896785 -0.32188922 0
0.51965994 1.6051831 -0.32181221 0
2.7186794 0.75812072 -0.33141685 0
2.8143365 0.64604634 -0.33226612 0
2.9117696 0.51498657 -0.33284244 0
4.1672978 0.14810246 -0.33810261 0
4.2108698 0.028398156 -0.33889714 0
6.6100779 -0.78132766 -0.34857827 0
6.6290388 -0.89215416 -0.34943286 0
-3.4248409 3.1582084 -0.30373791 0
-3.3344851 3.2232633 -0.30333856 0
-0.83924371 2.2031159 -0.31549224 0
-0.70331544 2.2589722 -0.31518838 0
0.6192112 1.6140668 -0.32221106 0
0.8228997 1.616349 -0.32243198 0
1.0276743 1.6031415 -0.32279375 0
1.1461476 1.5872862 -0.32285485 0
2.243001 1.1680605 -0.32800668 0
2.3452606 1.0928404 -0.3284511 0
2.5060441 0.96444887 -0.32967898 0
2.6420374 0.8389805 -0.33087763 0
4.0486832 0.4178794 -0.33598796 0
4.1108227 0.2884137 -0.33716914 0
6.5528588 -0.48245418 -0.34646097 0
6.5758071 -0.60153854 -0.3472296 0
-3.180809 3.3358622 -0.30297509 0
-3.0791354 3.4021797 -0.30255914 0
-0.56842524 2.3113346 -0.31520668 0
-0.43227857 2.3573058 -0.31516787 0
1.2492065 1.5709882 -0.32331029 0
1.433763 1.5300624 -0.32397705 0
1.6241409 1.4727435 -0.32468656 0
1.8130705 1.3986406 -0.32538325 0
2.0017369 1.3104422 -0.32653594 0
2.1607001 1.2183986 -0.32728449 0
3.9044309 0.68580693 -0.33385047 0
3.9874701 0.53997344 -0.33508027 0
6.5225105 -0.36035162 -0.34545639 0
-14.468635 7.8669615 -0.24972539 0
-14.403756 7.9006815 -0.24947341 0
-2.9621971 3.4773955 -0.3022382 0
-0.30744928 2.3925395 -0.31499869 0
-0.15230948 2.4301684 -0.31490695 0
-0.020481348 2.4581029 -0.31489453 0
3.6784582 1.0292161 -0.33126062 0
3.7652261 0.90398914 -0.33209303 0
3.8432937 0.78398806 -0.33292106 0
6.4484634 -0.083744586 -0.34334016 0
6.481988 -0.19917655 -0.34427243 0
-14.261704 7.9952412 -0.24916027 0
-2.8386765 3.5561471 -0.30201054 0
-2.7172956 3.627502 -0.30175379 0
0.093901336 2.4788098 -0.31503862 0
0.30415881 2.5068655 -0.31524724 0
3.3869286 1.3696227 -0.32814783 0
3.4743872 1.2752755 -0.32903513 0
3.5964196 1.1314192 -0.33022982 0
6.358417 0.20068234 -0.34115392 0
6.4019318 0.077433825 -0.34226781 0
-14.025599 8.1382704 -0.24853258 0
-2.5912263 3.6991739 -0.30153579 0
-2.4626117 3.7647934 -0.30119583 0
0.41157442 2.5203688 -0.31567454 0
0.53009003 2.521256 -0.31534246 0
0.74199575 2.5249882 -0.31576061 0
0.91232467 2.5176673 -0.31598097 0
3.0261214 1.703522 -0.32543263 0
3.1718059 1.5772769 -0.32637227 0
3.3161821 1.4414372 -0.32754648 0
6.2570691 0.47856396 -0.33905679 0
6.3077345 0.35003096 -0.34016228 0
-13.882371 8.2283907 -0.248216 0
-13.796803 8.2818146 -0.24803513 0
-2.3405061 3.8254476 -0.30096272 0
-2.2146132 3.8858709 -0.30080539 0
1.008242 2.5122151 -0.31632721 0
1.161878 2.4947679 -0.31664956 0
1.3639886 2.4631517 -0.31720179 0
1.5626732 2.420696 -0.31781045 0
1.7488163 2.3714507 -0.31854153 0
1.9535842 2.3045511 -0.31937978 0
2.1324091 2.233016 -0.3200134 0
2.315279 2.1512003 -0.32096547 0
2.4965918 2.0577757 -0.32197383 0
2.669678 1.9541495 -0.32287401 0
2.8477983 1.8359773 -0.32405275 0
2.9452333 1.7635787 -0.32461277 0
6.1540561 0.73225349 -0.33726621 0
6.2046881 0.60548383 -0.33804706 0
-13.67769 8.3490572 -0.24771608 0
-13.565199 8.419487 -0.24750723 0
-2.0754511 3.9481082 -0.3006272 0
-1.9513614 3.9985018 -0.30040449 0
6.0278654 0.99546891 -0.33508673 0
6.09094 0.86424345 -0.33610725 0
-13.41734 8.501399 -0.24713293 0
-13.301121 8.5672293 -0.24686977 0
-1.8223631 4.051662 -0.30038583 0
-1.6758597 4.1046057 -0.30022418 0
5.8958912 1.2424815 -0.33303949 0
5.9687614 1.1096783 -0.3341704 0
-13.16043 8.6509542 -0.24662191 0
-1.5562992 4.147831 -0.30024704 0
-1.3979461 4.1973848 -0.3001613 0
1.6107926 3.1103046 -0.23731793 0
5.7508674 1.4923053 -0.33111584 0
5.8336077 1.3546627 -0.33223626 0
-12.92831 8.7771978 -0.24611671 0
-1.1556945 4.2656298 -0.30011177 0
-0.9952212 4.3048248 -0.30007312 0
1.6858842 3.1066949 -0.23833321 0
1.8305668 3.1075332 -0.24093096 0
2.03563 3.1086197 -0.24500674 0
2.1838231 3.107866 -0.24815536 0
5.5864134 1.7463043 -0.32911259 0
5.6776333 1.6028085 -0.33003595 0
-12.7027 8.8324003 -0.24486105 0
-12.505377 8.8329191 -0.24320741 0
-12.311482 8.8331919 -0.24159355 0
-0.88575727 4.3311138 -0.30019602 0
-0.6945172 4.3681054 -0.30023 0
2.2823586 3.1082861 -0.25045568 0
2.4676359 3.1072679 -0.25496763 0
2.6807299 3.1079054 -0.26068521 0
5.3208327 2.1037304 -0.32605481 0
5.4452391 1.9449253 -0.32750595 0
-12.166811 8.8322468 -0.24038398 0
-12.025832 8.8323889 -0.23922697 0
-11.838108 8.8305855 -0.23767287 0
-11.703351 8.8322277 -0.23660244 0
-0.47154671 4.4042225 -0.30034438 0
-0.25465506 4.4337234 -0.30061555 0
2.8946404 3.1076043 -0.26682559 0
3.1127367 3.1070428 -0.2735095 0
3.2729156 3.1078646 -0.2787312 0
5.0438552 2.4295442 -0.32331562 0
5.1536131 2.3066194 -0.32440558 0
5.2528372 2.1859887 -0.32528383 0
-11.569592 8.8330927 -0.23553871 0
-11.392335 8.8330231 -0.23412472 0
-11.212641 8.8285122 -0.23264788 0
-0.14864957 4.4496794 -0.30098847 0
-0.013888597 4.4555025 -0.30088371 0
0.20056093 4.4690094 -0.3012718 0
0.31352878 4.4709215 -0.30135944 0
3.3793278 3.1084652 -0.28232485 0
3.5326178 3.1092279 -0.28766876 0
3.7572083 3.1088047 -0.2957181 0
3.8750498 3.1078823 -0.30004221 0
4.7200971 2.7618566 -0.32055318 0
4.8455639 2.6368268 -0.32152337 0
4.9654579 2.5147064 -0.3226169 0
-11.08969 8.8331156 -0.2317443 0
-10.95994 8.8307314 -0.23070535 0
-10.752114 8.8307209 -0.22910674 0
-10.589197 8.8312082 -0.22787286 0
0.42128512 4.4735451 -0.30163589 0
0.63190538 4.4707179 -0.30203691 0
0.82769525 4.4606004 -0.30238929 0
3.9761395 3.1088948 -0.30392346 0
4.1721845 3.1089802 -0.31153849 0
4.3754716 3.0634789 -0.31781018 0
4.5367074 2.9263971 -0.31899962 0
4.6422467 2.8357518 -0.31996456 0
-10.510456 8.832819 -0.22729993 0
-10.351538 8.832984 -0.22611319 0
-10.114261 8.8302898 -0.22432391 0
0.92994452 4.4556851 -0.30273065 0
1.0522113 4.444869 -0.30303994 0
1.2623615 4.4194794 -0.30351987 0
1.4639295 4.3904891 -0.30414549 0
1.6594418 4.3551545 -0.30475715 0
-9.8874702 8.832015 -0.22269922 0
-9.6648331 8.8327875 -0.22111912 0
-9.4806395 8.8312206 -0.2198018 0
-9.3737278 8.8321428 -0.21907152 0
-9.2319107 8.832077 -0.21809678 0
-9.0219374 8.8311672 -0.21666273 0
-5.5315652 -8.3700151 -0.13373977 0
-5.3752842 -8.3701792 -0.13288563 0
-5.2627583 -8.3668575 -0.13224681 0
-5.1148691 -8.3705187 -0.13152359 0
-4.9034476 -8.3697443 -0.13045986 0
-4.7589617 -8.3696499 -0.129766 0
-4.6559443 -8.367403 -0.12926167 0
-4.4782367 -8.3692741 -0.12849349 0
-4.2646379 -8.3697443 -0.12759805 0
-4.0552878 -8.3680286 -0.12675287 0
-3.8347368 -8.3692656 -0.12596482 0
-3.6713753 -8.3677101 -0.12539157 0
-3.5651751 -8.3681345 -0.12505971 0
-3.408885 -8.3695068 -0.12461414 0
-3.2043152 -8.3710575 -0.12408211 0
-3.0708523 -8.373168 -0.12378339 0
-2.9523151 -8.3679838 -0.12345017 0
-2.7736688 -8.3693409 -0.12311481 0
-2.5815825 -8.3690424 -0.12278983 0
-2.4706428 -8.3678093 -0.122614 0
-2.3477089 -8.3711243 -0.12251689 0
-2.1322045 -8.3687286 -0.12229125 0
-1.9820495 -8.37047 -0.12223091 0
-1.8771555 -8.3687611 -0.1221746 0
-1.7009294 -8.3695908 -0.12218399 0
-1.4836633 -8.3700571 -0.12226692 0
-1.36887 -8.3693466 -0.12233233 0
-1.2558901 -8.3708601 -0.12246249 0
-1.0587974 -8.3689747 -0.12268012 0
-0.87817746 -8.3678856 -0.12296013 0
-0.76823491 -8.3684635 -0.12318192 0
-0.63180941 -8.3689547 -0.12349712 0
-0.41501039 -8.3682661 -0.12405352 0
-0.28053945 -8.3681154 -0.12445133 0
-0.17346603 -8.3670921 -0.12478866 0
0.012539387 -8.3690023 -0.12549128 0
0.22414148 -8.3700457 -0.12636723 0
0.43500113 -8.3680382 -0.12729552 0
0.65810376 -8.3691635 -0.12844124 0
0.82855177 -8.3672504 -0.12934627 0
0.90719897 -8.3712645 -0.12986381 0
0.90974593 -5.6341152 -0.08742547 0
0.90973973 -4.6496935 -0.072158039 0
0.91113484 -4.1025543 -0.17689736 0
0.90967244 -3.9988992 -0.062065136 0
0.95368052 -3.86148 -0.12009402 0
1.090816 -3.8613932 -0.10965921 0
1.3007357 -3.8622556 -0.11136873 0
1.5168271 -3.8618081 -0.12481809 0
1.7373068 -3.8613801 -0.11920719 0
1.9067993 -3.862042 -0.12442652 0
-4.1024194 -1.3602073 -0.07045871 0
-3.9510136 -1.3958236 -0.06869629 0
2.0164828 -3.8612988 -0.12635197 0
2.1608922 -3.8606362 -0.12909147 0
2.3727965 -3.8617084 -0.13117094 0
2.5065649 -3.8626919 -0.13651715 0
-4.101367 -1.2232682 -0.070512392 0
-3.7293959 -1.3953884 -0.066126309 0
-3.5263901 -1.3951458 -0.063774064 0
-3.4041157 -1.3953509 -0.062358517 0
2.6092527 -3.8609574 -0.1388551 0
2.8046274 -3.8608224 -0.15053223 0
3.0069349 -3.8617966 -0.14874473 0
-4.0972056 -0.90921581 -0.070844144 0
-4.1004667 -1.0215995 -0.070709005 0
-3.286396 -1.395288 -0.060996529 0
-3.1240618 -1.395472 -0.059120126 0
-2.9090676 -1.3956857 -0.10046422 0
3.1111753 -3.8610802 -0.15149727 0
3.2161112 -3.8608761 -0.12286943 0
3.3864489 -3.86324 -0.090444766 0
-4.1014714 -0.7952233 -0.071127154 0
-2.7890155 -1.3960445 -0.11940025 0
-2.6584768 -1.3956177 -0.11566196 0
-2.4644701 -1.3956696 -0.11010022 0
-2.2873745 -1.3954093 -0.10500722 0
-4.1012526 -0.57434011 -0.071694255 0
-2.1924531 -1.3957468 -0.1022888 0
-2.0431597 -1.3953836 -0.098019049 0
-1.8104138 -1.3957335 -0.09136866 0
-4.1018448 -0.32396746 -0.072547339 0
-4.1005893 -0.42442605 -0.072163589 0
-1.5888464 -1.3957465 -0.085072838 0
-1.3710475 -1.3953418 -0.1024207 0
-1.2067101 -1.3956251 -0.11135066 0
-4.100935 -0.15766639 -0.073226959 0
-1.1058314 -1.3951913 -0.10684876 0
-0.96320766 -1.3956184 -0.098318905 0
-0.74334925 -1.3956506 -0.097815923 0
-0.60107964 -1.3954282 -0.10675405 0
-4.1007342 0.060147941 -0.074266337 0
-0.49907809 -1.3956065 -0.10552003 0
-0.31618339 -1.3956032 -0.10481842 0
-0.099337399 -1.416707 -0.10776997 0
0.058366537 -1.5451832 -0.10663293 0
0.2110579 -1.5452411 -0.11125474 0
-4.1013184 0.29705197 -0.075583115 0
-4.1004767 0.18567091 -0.074929498 0
-0.004899323 -1.3949227 -0.095237099 0
0.067855597 -1.3957111 -0.10475599 0
-4.1006775 0.48871464 -0.076774314 0
1.4316568 -1.5433221 -0.13604325 0
1.4741918 -1.5451767 -0.11252164 0
-4.1031084 0.79035932 -0.078911923 0
-4.1016579 0.68144745 -0.078102916 0
1.597114 -1.4751415 -0.11879944 0
1.7139986 -1.5445352 -0.1071864 0
-4.1021543 0.88674217 -0.079638191 0
1.6936828 -1.394079 -0.12656365 0
1.8206271 -1.3944817 -0.11788414 0
2.0273545 -1.3942106 -0.11610963 0
2.187638 -1.3941963 -0.12333428 0
-4.0996747 1.1932297 -0.082127266 0
2.2910666 -1.3939776 -0.12698552 0
2.4124911 -1.3947566 -0.11980844 0
-4.1009016 1.3786395 -0.083791219 0
-4.1013565 1.2754667 -0.082865074 0
7.4269695 -2.9627254 -0.16738228 0
-4.1001759 1.5567286 -0.085457951 0
7.4274936 -2.8370678 -0.16699381 0
-4.1007252 1.7651443 -0.087522984 0
7.4271898 -2.6011734 -0.1663277 0
7.4242845 -2.7113965 -0.16655068 0
-4.1014795 1.8996775 -0.088910773 0
7.4258909 -2.4055583 -0.16585514 0
7.4262562 -2.1053104 -0.16535857 0
7.4253869 -2.2126465 -0.16549449 0
7.4275723 -1.9751463 -0.16524661 0
7.4266658 -1.7632382 -0.16507931 0
7.4265351 -1.5068135 -0.16505073 0
7.4285507 -1.6116478 -0.1650852 0
7.4247994 -1.3446364 -0.16508834 0
7.4277077 -1.1256944 -0.16536729 0
7.4251027 -0.90711361 -0.16564231 0
7.4272161 -0.70015138 -0.16612677 0
7.4242349 -0.41233355 -0.16684733 0
7.4270382 -0.51595658 -0.16660379 0
7.4274712 -0.27323562 -0.16739 0
7.4268055 -0.052422404 -0.16821106 0
7.4263663 0.19374985 -0.16928095 0
7.42732 0.088015974 -0.16881718 0
-4.9435444 5.0261025 -0.13539618 0
-4.727087 5.0279937 -0.13404569 0
-4.5511365 5.0249405 -0.13291708 0
7.4254704 0.37278205 -0.17014836 0
-4.4394727 5.0258155 -0.13226245 0
-4.2761178 5.0271668 -0.13133568 0
-4.0625906 5.0264311 -0.13013557 0
-3.9386215 5.0228586 -0.12941545 0
7.4267707 0.68368286 -0.17190011 0
7.426537 0.57495028 -0.1712672 0
-3.8390841 5.0251622 -0.12893616 0
-3.6413198 5.0255265 -0.12795921 0
-3.4504547 5.0273385 -0.12709212 0
1.6114541 3.1098495 -0.095823407 0
7.426043 0.79318851 -0.17255245 0
-3.3550701 5.0253844 -0.12663333 0
-3.2342381 5.0279427 -0.1261595 0
-3.0085146 5.0256896 -0.12521994 0
-2.8489842 5.026278 -0.1246407 0
1.6868682 3.1077523 -0.096476384 0
1.831284 3.1074002 -0.0978719 0
2.0399306 3.1064146 -0.10001623 0
2.1900651 3.1069663 -0.1016809 0
7.4274907 1.003027 -0.17394142 0
-2.7486701 5.0249777 -0.12427444 0
-2.5819259 5.0254431 -0.12375313 0
-2.3660755 5.0272779 -0.12317535 0
2.2952831 3.1049428 -0.10285973 0
2.4712124 3.107064 -0.1050218 0
2.6850865 3.1052816 -0.10771208 0
7.4258232 1.291476 -0.17593206 0
7.4241176 1.1770146 -0.17506489 0
-2.1541708 5.0242648 -0.12261559 0
-1.9383662 5.0266156 -0.122238 0
-1.7643492 5.0274606 -0.12198555 0
2.8956149 3.1059206 -0.11054908 0
3.104337 3.1055341 -0.11347999 0
3.2683935 3.105454 -0.11587185 0
7.4273686 1.4459345 -0.17713588 0
-1.6666725 5.0279832 -0.12187566 0
-1.5204823 5.0236373 -0.12166499 0
-1.2866712 5.0250654 -0.12157897 0
-1.1476641 5.0280318 -0.12162623 0
3.3792238 3.1071332 -0.11756075 0
3.5379441 3.1075666 -0.1200075 0
3.7561948 3.1064169 -0.12343787 0
3.8861909 3.1070993 -0.12555245 0
7.4254265 1.6538827 -0.17874709 0
-1.0447199 5.0269957 -0.12163766 0
-0.86490077 5.0271454 -0.12176006 0
-0.65591151 5.0257931 -0.12197571 0
3.9853725 3.1077969 -0.12719896 0
4.171586 3.1073563 -0.13031547 0
4.3633323 3.1057272 -0.13357632 0
7.4261398 1.880748 -0.18067305 0
7.4290724 1.774442 -0.17982525 0
-0.44814354 5.0259681 -0.12233637 0
-0.23644644 5.0261064 -0.12282564 0
-0.1067034 5.0251212 -0.12316145 0
4.4762855 3.1060119 -0.13554689 0
4.606812 3.106724 -0.13786289 0
4.8220696 3.1056619 -0.14170699 0
4.9789915 3.1071904 -0.14458494 0
7.4269891 2.0858405 -0.18251266 0
-0.066848695 5.2521567 -0.12764099 0
-0.065798998 5.1022773 -0.12476596 0
5.082325 3.1079574 -0.14649831 0
5.248095 3.1069379 -0.14956887 0
5.4542437 3.1069889 -0.15345325 0
5.5736728 3.1105578 -0.15577273 0
7.4262419 2.3800936 -0.18525122 0
7.4268255 2.2811131 -0.18431909 0
-0.06640029 5.3989434 -0.13046266 0
5.6902256 3.1081252 -0.15797815 0
5.9012294 3.1069047 -0.16204797 0
6.0883441 3.1080122 -0.1657225 0
7.4254422 2.5095458 -0.18650503 0
-0.066392243 5.5560379 -0.13348237 0
6.1839767 3.1077316 -0.16760278 0
6.3221302 3.107012 -0.17033376 0
6.5506802 3.1079051 -0.17490979 0
6.6800914 3.1081846 -0.17751609 0
7.4261327 2.7305706 -0.18875358 0
-0.066407502 5.8079901 -0.13832821 0
6.7882638 3.1061375 -0.1796803 0
6.9748545 3.1080477 -0.18349572 0
7.1650801 3.1070564 -0.18737702 0
7.4233766 2.9867208 -0.19139329 0
7.4277201 2.8819454 -0.19036543 0
-0.066801786 6.0806818 -0.14357467 0
7.3761129 3.0978763 -0.19162299 0
-0.067171752 6.2764883 -0.14734362 0
-0.066416323 6.4742417 -0.15115559 0
-0.066480458 6.6902127 -0.1553172 0
-0.066526592 6.9188976 -0.15972552 0
-0.22222954 8.8327351 -0.19605277 0
-0.068170846 8.8317652 -0.19664849 0
0.068382502 8.8312483 -0.19721346 0
0.18753403 8.8311119 -0.19774391 0
0.37432587 8.8327818 -0.19866121 0
0.57789129 8.8306408 -0.19965433 0
0.79805273 8.8315716 -0.20087641 0
1.0181559 8.8309135 -0.20215234 0
1.17065 8.8311615 -0.20309956 0
1.2724202 8.8319769 -0.2037691 0
1.4422143 8.8314915 -0.20489527 0
1.6635265 8.8317814 -0.20645279 0
1.7826526 8.8282366 -0.20725337 0
1.8855507 8.8307524 -0.20807765 0
2.074609 8.8327179 -0.20958662 0
2.2643046 8.8323965 -0.2111177 0
2.3857725 8.8337288 -0.21215934 0
2.4899392 8.8325367 -0.21303086 0
-5.5326195 -8.3728933 0.21018252 0
-5.3738737 -8.3701916 0.2074471 0
-5.264328 -8.3705139 0.20560849 0
-5.1148891 -8.3723192 0.20314512 0
-4.9038124 -8.372035 0.19966188 0
-4.7597384 -8.3725739 0.19732383 0
-4.6565619 -8.3701506 0.19562146 0
-4.4778934 -8.3707743 0.19278273 0
-4.2636862 -8.3704014 0.189411 0
-4.0549717 -8.3696985 0.18617962 0
-3.8347297 -8.3715076 0.18287593 0
-3.6729989 -8.3727398 0.18049033 0
-3.5656114 -8.3712416 0.17888963 0
-3.4090462 -8.3722649 0.17664328 0
-3.2029905 -8.3711872 0.17369995 0
-3.0675242 -8.3694658 0.17178117 0
-2.9534245 -8.3729906 0.17027859 0
-2.7574856 -8.3720722 0.16762596 0
-2.5498254 -8.3718462 0.16489629 0
-2.3456752 -8.3696508 0.1622529 0
-2.1318264 -8.3713522 0.15963596 0
-1.9663951 -8.3722992 0.15766126 0
-1.8620567 -8.3719444 0.15642624 0
-1.7001879 -8.3715649 0.15455975 0
-1.4831595 -8.3729744 0.15216789 0
-1.3679411 -8.3709869 0.15088293 0
-1.2542965 -8.370307 0.1496726 0
-1.0574458 -8.3691626 0.14763434 0
-0.8775906 -8.3715057 0.14590697 0
-0.76765662 -8.3724327 0.14487432 0
-0.63063568 -8.3701773 0.14356591 0
-0.41420919 -8.3721371 0.14168224 0
-0.26614016 -8.371026 0.14040296 0
-0.15894896 -8.3693008 0.1394936 0
0.01362592 -8.3724709 0.1381997 0
0.22536582 -8.372961 0.13663644 0
0.43622628 -8.3724375 0.13516264 0
0.64642495 -8.3719263 0.13379604 0
0.81691951 -8.3719711 0.13276924 0
0.90872675 -8.3730764 0.13226528 0
0.91001254 -5.5832038 0.078137755 0
0.91013414 -4.606144 0.12437592 0
0.91003329 -3.97051 0.10098068 0
0.95500875 -3.863487 0.097023882 0
1.0944701 -3.8628092 0.094554953 0
1.3076777 -3.8631122 0.091756091 0
1.4187152 -3.8681877 0.14979565 0
1.4053726 -3.8584404 0.042728245 0
1.5216701 -3.8636191 0.10335241 0
1.732981 -3.8625793 0.10116111 0
1.9134343 -3.8633835 0.094606206 0
-4.1020255 -1.3599322 0.10314214 0
-3.9559722 -1.3961535 0.099903792 0
2.0149169 -3.8628194 0.098530553 0
2.1674438 -3.8629913 0.097354695 0
2.3845875 -3.8628407 0.10169934 0
2.5083065 -3.8628979 0.10298151 0
-4.1009941 -1.2229567 0.10265166 0
-3.7413712 -1.3965796 0.094950102 0
-3.5390749 -1.3964956 0.090280443 0
-3.4142146 -1.3964307 0.087399416 0
2.6128788 -3.8617694 0.10420093 0
2.8081663 -3.8632925 0.11491285 0
3.0097823 -3.863673 0.10955096 0
-4.0975814 -0.90889305 0.10173197 0
-4.0999131 -1.0212717 0.10204965 0
-3.2944345 -1.3961465 0.084635608 0
-3.1323915 -1.3964189 0.080901027 0
-2.9165499 -1.3964968 0.1199145 0
3.11256 -3.8606176 0.089168444 0
3.2157285 -3.8627148 0.083763495 0
3.3880885 -3.8639474 0.046810742 0
-4.0995388 -0.79190344 0.10156175 0
-2.7928958 -1.3963294 0.13743378 0
-2.6665263 -1.3965724 0.13233912 0
-2.4724009 -1.3967017 0.12452637 0
-2.2938955 -1.3963056 0.11735648 0
-4.0999513 -0.58035159 0.10129189 0
-2.1984205 -1.3965893 0.11343037 0
-2.0502248 -1.3965132 0.10753845 0
-1.8155179 -1.3965974 0.098139644 0
-4.1014719 -0.30388993 0.10119462 0
-4.0997977 -0.40809831 0.10117399 0
-1.59131 -1.3961555 0.089184523 0
-1.375778 -1.3963553 0.10422161 0
-1.19893 -1.3961281 0.11062607 0
-4.101037 -0.15715778 0.10122961 0
-1.0931196 -1.3959992 0.10464101 0
-0.95435339 -1.3960725 0.10183046 0
-0.74001402 -1.3961531 0.095171347 0
-0.60137564 -1.3962525 0.10267086 0
-4.1015611 0.060820043 0.10143678 0
-0.49292368 -1.3961678 0.096768379 0
-0.31259102 -1.3963156 0.094453759 0
-0.102126 -1.4123282 0.091941886 0
0.054687798 -1.5440832 0.095413782 0
