# .PCD v0.7 - Point Cloud Data file format
VERSION 0.7
FIELDS x y z intensity
SIZE 4 4 4 4
TYPE F F F F
COUNT 1 1 1 1
WIDTH 338
HEIGHT 1
VIEWPOINT 0 0 0 1 0 0 0
POINTS 338
DATA ascii
-4.0475187 -1.3961958 -0.30166346 0
-3.1297362 -1.3930529 -0.34737122 0
-3.0665083 -1.3951257 -0.33478874 0
-2.67224 -1.3885949 -0.34977546 0
-4.090528 -0.22882003 -0.30520183 0
-4.0975695 -0.026756771 -0.33165967 0
-2.6976302 0.43061906 -0.32511872 0
-3.7171364 2.3371508 -0.31775892 0
-3.474503 2.4678032 -0.36549708 0
-6.851707 4.9292059 -0.39490816 0
-5.0294499 5.0133929 -0.32786986 0
0.91985297 -3.8694489 -0.26307401 0
-0.16713119 -1.540314 -0.2429554 0
-0.051123559 -1.5448833 -0.25585005 0
0.093063056 -1.5432391 -0.24609825 0
0.17144459 -1.543746 -0.22380202 0
0.29085559 -1.5465207 -0.22758253 0
0.4390412 -1.5431472 -0.22378331 0
1.2743007 -1.5404904 -0.22225153 0
1.396551 -1.5436728 -0.23319332 0
1.5045054 -1.5418715 -0.21636634 0
1.614054 -1.5388863 -0.26225781 0
1.7365094 -1.5430884 -0.27566671 0
1.8556216 -1.5423944 -0.23475388 0
2.4854205 -1.4098161 -0.26560897 0
2.5048227 -1.4058764 -0.23243394 0
-4.1031952 -1.3954465 -0.24436678 0
-4.0901337 -1.3887526 -0.26132962 0
0.033159018 -1.3891184 -0.23868781 0
0.29075456 -1.3926685 -0.24020143 0
1.4253973 -1.3888471 -0.20773463 0
1.656774 -1.3903998 -0.23145677 0
2.4917109 -1.3945727 -0.25993305 0
2.5006764 -1.3901451 -0.24840456 0
-4.1030898 0.94478649 -0.26420608 0
-4.1016645 1.9330155 -0.21182428 0
-4.09337 1.9481847 -0.24873482 0
1.5782871 3.1515777 -0.21208747 0
7.425241 3.1085215 -0.29092386 0
1.5761533 3.2357817 -0.22726691 0
-3.3705628 3.8503428 -0.28610247 0
-0.082388937 5.0121398 -0.26455939 0
-9.8900042 6.7811065 -0.29054281 0
-14.997332 8.8137417 -0.21030277 0
-14.40199 8.8321514 -0.25070244 0
0.92338639 -3.8729985 -0.15748991 0
-0.19129413 -1.543889 -0.14498492 0
-0.075634718 -1.5463076 -0.12686579 0
0.070803791 -1.5437491 -0.13788567 0
0.15091395 -1.54379 -0.14585584 0
0.26787904 -1.5480329 -0.14217266 0
0.41346896 -1.5442455 -0.14699067 0
1.2953045 -1.5412805 -0.14482461 0
1.4208689 -1.5441279 -0.15622342 0
1.5304289 -1.5413811 -0.13922718 0
1.6400466 -1.5421718 -0.14410539 0
1.7528584 -1.5434628 -0.19659607 0
1.8689537 -1.5406849 -0.15515789 0
2.4832821 -1.4081864 -0.16513553 0
2.5069311 -1.4068325 -0.14346829 0
-4.0365858 -1.3947842 -0.1249071 0
0.12888837 -1.3946679 -0.14905451 0
1.5677516 -1.3928528 -0.12614529 0
2.4943144 -1.3934715 -0.15694268 0
2.5029566 -1.3911235 -0.16221292 0
-4.0914249 1.9355861 -0.13281485 0
1.5776377 3.2467461 -0.11068432 0
-5.0450253 5.0295544 -0.16059196 0
-4.3990102 5.0311351 -0.11576013 0
-0.067537256 5.0320659 -0.13426813 0
-0.056357324 5.1085563 -0.17018788 0
-15.020731 8.81353 -0.18726103 0
-12.191809 8.8201294 -0.158897 0
3.7951055 8.8184814 -0.19643694 0
0.91953468 -3.8649065 -0.051916707 0
-0.2017476 -1.5426778 -0.044805683 0
-0.082646012 -1.5466809 -0.046677444 0
0.062990546 -1.5428463 -0.02827082 0
0.13930029 -1.5435008 -0.043749563 0
0.25629556 -1.546742 -0.055609714 0
0.39589816 -1.5451926 -0.053346246 0
1.3092886 -1.5427883 -0.051083297 0
1.4348025 -1.5467715 -0.062356211 0
1.5452192 -1.5437344 -0.04525752 0
1.7681701 -1.5441685 -0.077122748 0
1.8801353 -1.5438888 -0.05567649 0
2.489466 -1.4112767 -0.065471776 0
2.5054185 -1.4059289 -0.054609478 0
-4.0948343 -1.3912479 -0.081243619 0
0.25373095 -1.3929929 -0.054218356 0
1.4555168 -1.3907574 -0.036358844 0
1.572053 -1.3956144 -0.063381515 0
2.4936821 -1.3953929 -0.06004364 0
2.5095706 -1.391995 -0.069309689 0
-4.1012592 1.9419507 -0.084560707 0
-4.0954223 1.9416882 -0.057574227 0
1.5801389 3.1703203 -0.070983753 0
7.4300737 3.1063046 -0.013026186 0
1.5754316 3.2315507 -0.083456382 0
-5.0340438 5.0169749 -0.077992074 0
-0.081235468 5.0113292 -0.089332506 0
0.91951919 -3.8678334 0.053242292 0
-0.18977869 -1.5428059 0.095322013 0
-0.081097007 -1.5457247 0.033743631 0
0.064389706 -1.5437587 0.061454631 0
0.13962257 -1.5436761 0.050662201 0
0.25936699 -1.5468347 0.038825754 0
0.39695954 -1.5447009 0.041193042 0
1.3088175 -1.5433004 0.043360427 0
1.4343209 -1.5470142 0.032126494 0
1.543478 -1.5473564 0.049490195 0
1.6488001 -1.5410655 0.016385442 0
1.7714176 -1.545943 0.02310073 0
1.8747493 -1.5437067 0.064129956 0
2.4835517 -1.4075098 0.034347288 0
2.5003324 -1.4031909 0.033933945 0
-4.0680819 -1.39109 0.063986532 0
-0.0035436153 -1.3936177 0.026067762 0
0.123721 -1.3951073 0.070589431 0
1.45066 -1.3906447 0.042503081 0
1.6902537 -1.3939608 0.018713182 0
2.4892774 -1.3946521 0.046431448 0
-4.0958176 1.944818 0.078913644 0
1.5753493 3.1835823 0.05890014 0
1.5766308 3.2440994 0.041053165 0
-5.0342417 5.0221739 0.097275019 0
-0.068259783 5.0308332 0.067318603 0
-0.06254866 5.1159964 0.044195868 0
0.91937381 -3.8673394 0.15856381 0
-0.18496412 -1.5437474 0.15547983 0
-0.062388003 -1.5470748 0.17364909 0
0.074123859 -1.5457425 0.15110624 0
0.15710449 -1.5424902 0.13643888 0
0.26796764 -1.5479949 0.12551531 0
0.41192114 -1.5452435 0.13531424 0
1.2915881 -1.5433037 0.13725053 0
1.4166421 -1.5478871 0.12606384 0
1.5256958 -1.5460613 0.14320527 0
1.6433821 -1.5464427 0.11717349 0
1.7584004 -1.5467774 0.13304567 0
1.8694426 -1.5475236 0.14428172 0
2.4925928 -1.4048295 0.1663738 0
2.5035567 -1.4047201 0.12256923 0
-4.0955772 -1.3941673 0.10312104 0
0.12476486 -1.3944111 0.10210607 0
0.26778769 -1.3966415 0.16589004 0
1.4293189 -1.3933814 0.17571037 0
1.6819969 -1.396045 0.11329116 0
2.4903338 -1.3951676 0.14244291 0
-4.1018257 1.934526 0.10703805 0
-4.0923309 1.9350121 0.12315897 0
1.5721281 3.1958327 0.19098353 0
1.5752834 3.2347341 0.17345878 0
-5.0384803 5.0198832 0.16569968 0
-0.06421189 5.0828624 0.19036858 0
3.7958109 8.8152189 0.13867328 0
0.91554546 -3.8668854 0.26425394 0
-0.15781367 -1.5444615 0.26381809 0
-0.0480147 -1.5462291 0.23272184 0
0.13972604 -1.5451264 0.24183962 0
0.30132258 -1.5480433 0.20972101 0
0.43916446 -1.5463333 0.21254615 0
1.2667742 -1.5457464 0.21499501 0
1.3910165 -1.5474575 0.20308709 0
1.4945523 -1.5477403 0.2199249 0
1.5975881 -1.545065 0.29455283 0
1.734719 -1.5466354 0.24173243 0
1.8385119 -1.5462832 0.26179269 0
2.4923072 -1.4042544 0.25963435 0
2.5038259 -1.4047315 0.21146946 0
-4.0691581 -1.3963236 0.2497291 0
0.15809268 -1.3966117 0.22537316 0
1.6551547 -1.3952248 0.20542088 0
2.4975407 -1.3961205 0.24828191 0
2.5080998 -1.398443 0.22906852 0
-4.1007571 1.9421027 0.25060683 0
-4.0965476 1.9376396 0.27129525 0
1.5782032 3.1707494 0.21302441 0
7.4317398 3.1026807 0.26497144 0
1.5747075 3.2496648 0.26995382 0
-0.067810811 5.0175142 0.26379552 0
-0.060126454 5.1128235 0.27111304 0
-15.014451 8.8175888 0.22619614 0
-12.726553 8.8261261 0.21262595 0
0.9153828 -3.8632965 0.37020347 0
2.4957521 -1.4066648 0.36304042 0
2.5034347 -1.4044032 0.30080411 0
2.4953067 -1.3980633 0.3466264 0
2.5041709 -1.3964574 0.35658115 0
-4.0995932 1.934762 0.30777645 0
7.401475 3.0928304 0.37069935 0
1.5755091 3.1860404 0.34586218 0
1.575318 3.2363708 0.3322053 0
-5.035284 5.0230446 0.38781291 0
-0.063917398 5.0220594 0.37720054 0
-15.005869 8.8200598 0.36004585 0
-14.981522 8.8204651 0.389842 0
0.91550916 -3.8626735 0.4773241 0
2.4941912 -1.4118615 0.43802139 0
-4.0805478 -1.3970848 0.42416525 0
2.4712317 -1.3976316 0.43997371 0
2.5050969 -1.3991461 0.44655669 0
-4.1003304 1.9362881 0.41946971 0
-4.0941625 1.9382062 0.45867679 0
1.5800693 3.1029048 0.49100724 0
1.5754774 3.2291386 0.45697564 0
-5.0461679 5.0193081 0.43008119 0
-0.070922561 5.0202036 0.45487174 0
-0.059707075 5.1232343 0.46372867 0
-15.016524 8.8106985 0.43244198 0
3.7974544 8.8141308 0.47404891 0
0.91546339 -3.8631561 0.58581978 0
2.4869146 -1.4051803 0.54333699 0
2.5018141 -1.4032474 0.52771884 0
-4.070015 -1.3978028 0.58477688 0
2.4945982 -1.3980577 0.51264769 0
-4.1023512 1.9355543 0.58320308 0
-4.0983787 1.9351106 0.50714409 0
7.4304619 3.0977418 0.54340106 0
1.5730627 3.2346134 0.56134272 0
-0.068319708 5.0298634 0.53392321 0
0.91335654 -3.8653188 0.69059169 0
2.4880512 -1.4054619 0.64073616 0
2.502377 -1.4033368 0.66757673 0
-4.0987339 -1.3938107 0.62741727 0
2.493124 -1.3996179 0.60965192 0
-4.0955 1.9392815 0.64552993 0
7.4015293 3.092222 0.65185863 0
1.5769961 3.150543 0.6307745 0
1.5751339 3.2428169 0.65854073 0
-5.0407062 5.020102 0.6761499 0
-0.070199646 5.0179925 0.64664459 0
0.91554278 -3.8651934 0.7524001 0
2.4870508 -1.4065213 0.74900466 0
2.5023036 -1.4031632 0.76292068 0
-4.0894594 -1.3992977 0.76373732 0
2.4852889 -1.397745 0.70625812 0
-4.101264 1.9340615 0.72973984 0
-4.0978746 1.9393779 0.77078491 0
1.5765535 3.1088576 0.76905012 0
1.5748739 3.2417281 0.75110662 0
-5.0468063 5.0168056 0.72701776 0
-0.070447944 5.0171432 0.74255103 0
0.91692853 -3.8692927 0.8145144 0
-4.1055613 -1.3943071 0.80587047 0
-4.0949626 1.8592701 0.82556337 0
-4.0951538 1.9320376 0.8752197 0
7.4283576 3.0979578 0.83056295 0
1.5732247 3.2360878 0.84156078 0
-0.066661283 5.0219994 0.86435479 0
-15.012561 8.8171711 0.87520862 0
3.7997694 8.8145838 0.81070113 0
-4.1013474 -1.3936174 0.98463905 0
-4.0962086 -1.3993795 0.94358075 0
-4.1010818 1.8657343 0.97932416 0
-4.10184 1.937063 0.90850508 0
-4.0985894 1.9359388 0.93560773 0
7.4036822 3.0924871 0.9348703 0
1.5772489 3.1138959 0.91688573 0
1.57897 3.2495551 0.93315822 0
-5.0400167 5.0172687 0.95364445 0
-0.071493939 5.0170412 0.93803865 0
-15.01597 8.8200998 0.97979069 0
-4.0961852 1.8583968 1.0465733 0
-4.1003618 1.9401808 1.0948259 0
-4.0972757 1.9339504 1.0782402 0
1.578699 3.1683495 1.0761005 0
-5.0535436 5.0228148 1.0330142 0
-0.068306535 5.0140476 1.0281199 0
-15.024908 8.8153381 1.0536942 0
-14.981366 8.8234577 1.0182362 0
-4.0959888 -1.3967094 1.1382536 0
-4.1044521 1.8677475 1.157163 0
-4.096221 1.9312894 1.1346432 0
-5.0661893 5.0131288 1.1602052 0
-0.068421997 5.0145774 1.1286733 0
-0.070155352 5.123209 1.1610364 0
3.7984402 8.8065577 1.1483331 0
-4.0973501 -1.3966451 1.2924541 0
-4.0962501 1.8375335 1.2459396 0
-4.1052527 1.93986 1.2442888 0
-4.0962791 1.9326522 1.2808056 0
7.4042645 3.0920904 1.2200817 0
-5.0384603 5.0151973 1.2394642 0
-0.10809314 5.0158982 1.2919329 0
-0.067344964 5.0162215 1.224347 0
-4.0941401 -1.3958107 1.3373003 0
-4.0982199 1.9334452 1.3307939 0
7.4109883 3.1042259 1.3921193 0
-5.0488772 5.0204353 1.3291149 0
-0.069043905 5.0252547 1.3440264 0
-4.091742 1.8362527 1.4491501 0
-5.0528183 5.0113573 1.4588317 0
-0.10966927 5.0102758 1.4831312 0
-0.065624267 5.007194 1.420899 0
3.7971718 8.7986383 1.4882659 0
-4.094656 1.9339935 1.5197868 0
7.4106207 3.0940981 1.5095407 0
-5.0257401 5.0128126 1.5811764 0
-0.061962049 5.0319715 1.5695683 0
-15.015292 8.8138466 1.5452561 0
-5.0563464 5.0185351 1.6535683 0
-15.019029 8.7883034 1.6846021 0
-15.019958 8.8198738 1.6488676 0
-14.99298 8.819026 1.6158652 0
7.4317231 3.083595 1.7743495 0
-5.046092 5.0067773 1.7508261 0
7.4107804 3.093509 1.8017843 0
-5.031549 5.0165539 1.8879452 0
3.7956102 8.7899952 1.8312103 0
7.4137878 3.0984619 1.9670941 0
-5.0508404 5.0151343 1.9365722 0
-4.2765961 -8.3890076 2.0836813 0
-4.0417886 -8.3819904 2.0955544 0
-1.3115234 -8.3830614 2.0938461 0
7.4345598 3.084795 2.068094 0
-5.0474319 5.005291 2.026998 0
-12.667822 8.8189077 2.0507088 0
-4.1473637 -8.3805161 2.1159565 0
-1.3030968 -8.3786669 2.1101944 0
-0.89099377 -8.3803329 2.1034482 0
7.4290066 -3.6704705 2.17049 0
7.438086 -3.2498989 2.1261463 0
7.4172201 3.0955305 2.1004155 0
-4.9889784 5.0137501 2.1899354 0
-15.02241 7.6766987 2.1669147 0
3.7979655 8.7067719 2.1627412 0
-15.007652 8.8156195 2.180748 0
-14.402649 8.8166904 2.1643319 0
-9.8966503 8.8159275 2.1609349 0
7.420886 -2.2578692 2.2239575 0
-4.8739033 5.0146823 2.2076232 0
-15.020037 8.790082 2.2035081 0
-15.004129 8.8216305 2.2492092 0
-14.224511 8.8211956 2.2553277 0
-10.484063 8.8098354 2.2741826 0
-10.188144 8.8026266 2.2504463 0
-9.778286 8.8164587 2.2055023 0
