# .PCD v0.7 - Point Cloud Data file format
VERSION 0.7
FIELDS x y z intensity
SIZE 4 4 4 4
TYPE F F F F
COUNT 1 1 1 1
WIDTH 73
HEIGHT 1
VIEWPOINT 0 0 0 1 0 0 0
POINTS 73
DATA ascii
-4.0316491 -0.042536926 -0.33005491 0
2.5770266 -1.4122247 -0.27199954 0
-4.029604 1.9308841 -0.21107553 0
0.0024279361 5.0095501 -0.26121253 0
-14.89968 8.8149099 -0.21651113 0
2.5725 -1.409456 -0.16853112 0
7.5025773 3.0801957 -0.18269835 0
1.648309 3.2288775 -0.19836882 0
3.8600163 8.8133812 -0.18717434 0
2.5747945 -1.4104266 -0.066021465 0
-4.0207191 1.9270025 -0.054828614 0
1.6468786 3.2246561 -0.071549438 0
-4.9747696 5.012476 -0.0941118 0
0.0034044732 5.006166 -0.086063169 0
2.5704365 -1.4077535 0.036406092 0
1.6502454 3.2298284 0.054947026 0
0.004384988 5.0101767 0.088770874 0
2.5582254 -1.412414 0.13843232 0
-4.027256 1.9305114 0.10099442 0
1.6494023 3.2267587 0.18154266 0
-4.9698958 5.0088863 0.1523 0
3.8620782 8.8137121 0.1487311 0
2.556536 -1.4111924 0.24070628 0
-4.0244155 1.9295263 0.25698304 0
0.0053699389 5.0157371 0.26418337 0
2.559248 -1.4123991 0.34401742 0
7.5054479 3.079922 0.3839398 0
1.6475136 3.221642 0.30816817 0
-4.9706755 5.0109959 0.39911944 0
-14.896771 8.8150263 0.38780785 0
2.5520568 -1.4081382 0.44665509 0
-4.0258331 1.9305842 0.41382891 0
1.6480076 3.2211781 0.43579933 0
0.0063422713 5.0067668 0.43935636 0
3.8644345 8.8147068 0.48511499 0
2.5587602 -1.4115409 0.55281228 0
-4.021584 1.9289263 0.57101053 0
1.6491877 3.2220423 0.56472868 0
2.5569723 -1.410255 0.65872145 0
1.6482713 3.2187967 0.69427663 0
-4.9687366 5.0103712 0.64670545 0
0.0073314942 5.0076203 0.61618668 0
2.552964 -1.4077402 0.76549226 0
-4.0227547 1.9298714 0.73026884 0
0.0083369296 5.0128903 0.79530394 0
-4.0234709 1.9306035 0.89136082 0
1.64961 3.2199352 0.82646704 0
-4.9604678 5.0033693 0.89461356 0
3.8661692 8.81427 0.82268161 0
7.5040216 3.0778751 0.95415187 0
1.6484033 3.2160828 0.95941043 0
0.0093413759 5.0105357 0.97530293 0
-14.951861 8.7790852 0.99487662 0
-4.0253911 1.9319185 1.0550994 0
-4.9696755 5.0140071 1.1480107 0
-0.0071362448 5.0099683 1.1581149 0
3.8668501 8.8114042 1.1619704 0
-4.0267353 1.9329647 1.2215512 0
-0.0060931551 5.0062089 1.3429035 0
-4.9668293 5.0125012 1.401889 0
7.4688077 3.0924375 1.5288857 0
3.8717031 8.8180046 1.5055851 0
-4.9672146 5.0142756 1.6601814 0
-14.950476 8.7801056 1.6035047 0
7.5059915 3.076441 1.8295244 0
3.8740485 8.81884 1.8523248 0
-4.9627671 5.0111928 1.9209937 0
7.5065436 -3.4172111 2.1640897 0
7.4690633 3.0910099 2.1221364 0
-14.946465 8.0234632 2.1699514 0
-14.424149 8.8153458 2.1599271 0
-9.9794607 8.8134861 2.1684139 0
3.4401104 8.8115282 2.1661036 0
