# .PCD v0.7 - Point Cloud Data file format
VERSION 0.7
FIELDS x y z intensity
SIZE 4 4 4 4
TYPE F F F F
COUNT 1 1 1 1
WIDTH 1395
HEIGHT 1
VIEWPOINT 0 0 0 1 0 0 0
POINTS 1395
DATA ascii
-8.4104338 -8.3876915 1.0733318 0
-8.7824078 -5.4949355 0.99241948 0
-8.2344875 -8.3881979 1.0644524 0
-8.5443182 -5.5577064 0.98066926 0
-8.0848007 -7.638339 1.0259455 0
-8.0042439 -8.3884315 1.0528686 0
-8.314661 -5.6195092 0.96945894 0
-7.7851677 -8.3914137 1.0420287 0
-8.1311359 -5.6662879 0.9604975 0
-7.5634928 -8.3899317 1.0309277 0
-8.0026217 -5.7028494 0.95436978 0
-7.8726807 -5.7375879 0.94814575 0
-7.5893612 -7.3521018 0.98885798 0
-7.3972588 -8.3868914 1.022557 0
-7.7009888 -5.7825956 0.93994427 0
-7.2457933 -8.3901205 1.0152352 0
-7.5747738 -5.8158579 0.93395758 0
-7.0894785 -8.3892279 1.00752 0
-6.9847088 -8.3873415 1.0023109 0
-7.1280937 -7.0858812 0.95435417 0
-6.8359013 -8.3878422 0.99508727 0
-3.9855452 1.8574952 1.0279572 0
-3.9853868 1.6576492 1.0208062 0
-3.9861212 1.4782516 1.0148309 0
-4.0100145 5.0075622 1.194867 0
-3.8705816 5.0082335 1.1845621 0
-3.6671286 5.0098243 1.1696817 0
-3.4670124 5.0095172 1.1550665 0
-3.2394075 5.0079823 1.1385491 0
-3.0524635 5.0086184 1.1252565 0
-2.9624701 5.0100317 1.1189905 0
-2.841198 5.0092759 1.1104192 0
-1.5844297 -1.4102874 1.241223 0
-2.634078 5.0079899 1.0959231 0
-2.4095755 5.0102625 1.0806977 0
-2.2164464 5.0099573 1.0676231 0
-2.0815473 5.0094175 1.058576 0
0.13096762 -1.4095935 1.1471889 0
-0.73442364 5.0128918 1.2880934 0
-0.60557842 5.0112724 1.2773516 0
1.1237092 -3.875288 1.296241 0
-0.39773464 5.0104136 1.2605226 0
1.3045125 -3.875844 1.2600615 0
-0.19780922 5.0110903 1.2449121 0
1.5233526 -3.8741989 1.2165753 0
-0.023808479 5.0126748 1.2317781 0
1.6522174 -3.8757358 1.19169 0
1.6984398 -3.8730278 1.1823479 0
1.8110096 3.0948563 1.2798417 0
1.9100456 3.0985088 1.2689203 0
2.0248775 3.0941081 1.2551028 0
4.27946 -8.2922869 1.4306177 0
2.2165518 3.0946808 1.2341533 0
4.2802382 -7.2260842 1.4426585 0
4.2814174 -7.5400095 1.2845527 0
4.2805948 -7.7304163 1.3214772 0
4.2806182 -7.9287009 1.3599631 0
4.2797728 -8.1429567 1.4015864 0
4.4035864 -8.3787422 1.4472736 0
2.4115605 3.0958252 1.2140028 0
4.279881 -6.2018275 1.3938886 0
4.2793112 -6.3207498 1.4252692 0
4.2813382 -6.542727 1.2863045 0
4.2805505 -6.7702832 1.3382888 0
4.2803044 -6.9649577 1.3828282 0
4.2805905 -7.1170764 1.4176636 0
4.6036634 -8.3792772 1.4479213 0
2.6270735 3.0956669 1.2666515 0
4.2807813 -5.7493525 1.2749277 0
4.2808385 -5.9125853 1.3177568 0
4.2793522 -6.0931463 1.3652833 0
4.7287283 -8.3734913 1.4476334 0
4.8276196 -8.3762989 1.4492097 0
2.8214028 3.0954199 1.3641199 0
5.0128322 -8.3790693 1.4523851 0
2.9604146 3.0975885 1.3500431 0
3.0609238 3.0965624 1.3398224 0
5.2224269 -8.3780432 1.45625 0
3.2366605 3.0958319 1.323208 0
5.4193387 -8.3786554 1.4613067 0
3.4345629 3.0964279 1.3063782 0
5.6161857 -8.3759441 1.4667777 0
3.6300044 3.0971446 1.2916 0
5.7639241 -8.3748102 1.4717306 0
5.8750653 -8.3763905 1.4763634 0
3.8416481 3.0975695 1.2775509 0
6.0362964 -8.3805122 1.4840634 0
4.0062618 3.0974784 1.2680281 0
4.1058559 3.0969968 1.2628564 0
6.2347631 -8.3759279 1.4925869 0
4.2503028 3.0970101 1.2565807 0
6.4348993 -8.3757124 1.5031285 0
4.4291277 3.0950546 1.2497475 0
6.6368842 -8.3767824 1.5151069 0
4.7062826 3.0973425 1.2441255 0
6.8150539 -8.3768225 1.5263734 0
7.5458641 -7.3280106 1.3844547 0
7.5463281 -7.5361562 1.4232831 0
7.545908 -7.7548628 1.4641428 0
7.5450726 -7.9461794 1.4999533 0
7.5451298 -8.1095104 1.5306724 0
7.5470591 -6.2963243 1.3928136 0
7.5468512 -6.4951091 1.4356767 0
7.5461407 -6.7066665 1.4814981 0
7.5446959 -6.9020119 1.5239339 0
7.5469236 -7.1675019 1.3547422 0
7.5465145 -5.3354101 1.3588116 0
7.5461698 -5.5108066 1.4010057 0
7.5454245 -5.7168269 1.4509554 0
7.5455737 -5.9208937 1.5010068 0
7.547204 -6.1128197 1.4017209 0
6.1099415 3.1003642 1.2836677 0
6.2015247 3.1013694 1.2905064 0
6.3058043 3.101366 1.2986785 0
6.4810386 3.1011009 1.3136951 0
6.6916866 3.0992255 1.3335503 0
6.8916731 3.1015759 1.3556607 0
7.0944571 3.1017556 1.3796526 0
7.2337708 3.1004305 1.3968832 0
7.3339167 3.1000438 1.4100686 0
7.4901228 3.0760164 1.425959 0
7.5352774 2.8441334 1.3771921 0
7.5362682 2.6695781 1.3361942 0
-9.2489614 -8.3378057 1.1142282 0
-9.1599197 -8.3891172 1.1117039 0
-9.0286264 -8.3879423 1.1049007 0
-6.6871834 -6.055429 1.3500971 0
-6.5765123 -6.0847769 1.3418725 0
-6.4301138 -6.1225419 1.3310187 0
-6.2589817 -6.5829806 1.3397146 0
-6.2568092 -6.171473 1.3184679 0
-6.1478558 -6.1974545 1.3103993 0
-5.9580145 -6.2580576 1.2972517 0
-3.9937153 -1.2569453 1.30538 0
-3.9887075 -1.355314 1.3049412 0
-3.9866066 -0.23627949 1.3118756 0
-3.987505 -0.36879319 1.3100723 0
-3.9889946 -0.56697488 1.3079016 0
-3.9875755 -0.78116089 1.3059062 0
-3.9869347 -0.99470514 1.3047618 0
-3.9874086 -1.1586633 1.3045208 0
-4.8794546 5.0074959 1.2608342 0
-3.9886599 0.81103957 1.3375539 0
-3.988183 0.6392647 1.3321407 0
-3.9907904 0.43533993 1.3267058 0
-3.9878273 0.23198307 1.3212345 0
-3.986908 0.030435205 1.3167278 0
-3.9853439 -0.13667226 1.3133733 0
-4.719368 5.0069203 1.2484813 0
-3.9904022 1.8385047 1.3792716 0
-3.9919376 1.6576124 1.3710349 0
-3.9901915 1.4597138 1.3621209 0
-3.9904509 1.2647444 1.3541677 0
-3.9896488 1.0540663 1.3460724 0
-3.9880896 0.91454494 1.3409295 0
-4.4502106 5.0074539 1.2279773 0
-4.2654419 5.0088854 1.2140925 0
-4.1207199 5.009686 1.2032764 0
-2.4161606 5.0088425 1.4382278 0
-2.251852 5.009644 1.4227076 0
-2.0377784 5.0098433 1.4026549 0
-1.9117455 5.0138593 1.3913757 0
-1.8049426 5.0099807 1.3811851 0
-1.6306186 5.0108886 1.3654559 0
-1.4117002 5.0106134 1.3458807 0
-1.2001467 5.0106707 1.3273412 0
0.11018753 -1.4093184 1.3462667 0
-0.99682426 5.0118952 1.3100111 0
-0.86225367 5.0105143 1.2984772 0
-0.7986145 5.0122766 1.2933545 0
1.8059058 3.094645 1.4907821 0
2.0063984 3.0952859 1.4632709 0
2.2106404 3.0958242 1.436428 0
4.2791986 -7.3426433 1.469413 0
4.2794471 -7.5165715 1.5093435 0
4.2784829 -7.7706604 1.567758 0
4.2794852 -7.9640474 1.6122417 0
4.2784467 -8.1100321 1.6458685 0
2.4063632 3.0960793 1.4119295 0
4.2789173 -6.5290003 1.4802902 0
4.2785311 -6.7530656 1.5395932 0
4.2776337 -6.9493423 1.5916445 0
4.2770457 -7.1046586 1.6328779 0
2.5624278 3.0956454 1.393137 0
6.9174094 -8.3759346 1.533034 0
7.0468636 -8.3770866 1.5423565 0
7.2553277 -8.3756504 1.5575668 0
7.4395757 -8.372529 1.5715495 0
7.5456095 -7.3781185 1.6286114 0
7.5444627 -7.5491505 1.6662939 0
7.5452356 -7.7344069 1.7074308 0
7.5447626 -7.8474717 1.7324988 0
7.5442543 -8.2336416 1.5539818 0
7.5446477 -8.3221836 1.5707188 0
7.5433235 -6.2997842 1.5945865 0
7.5433474 -6.4997635 1.6446074 0
7.5431619 -6.7133584 1.6983104 0
7.5431852 -6.9359818 1.6414191 0
7.5455136 -7.1484199 1.5780259 0
7.5450397 -7.275979 1.6060312 0
7.5446615 -6.1382217 1.5545763 0
-14.909144 -3.8780556 1.3190839 0
-14.909184 -4.0583024 1.321573 0
-14.904925 -4.2745275 1.324477 0
-14.907256 -4.492342 1.3279934 0
-14.907037 -4.6740427 1.3309443 0
-14.908404 -3.0535483 1.3094366 0
-14.908803 -3.2680087 1.3116825 0
-14.911008 -3.4830866 1.3142385 0
-14.907376 -3.6980138 1.3166398 0
-12.480371 8.8082104 1.3605187 0
-12.338494 8.8098478 1.3536607 0
-12.123815 8.8092518 1.3432014 0
-11.913739 8.8093414 1.3330367 0
-11.707385 8.8091898 1.3230953 0
-11.50048 8.8067789 1.3130746 0
-11.3063 8.8096609 1.3039393 0
-8.5165854 -5.5704732 1.4916319 0
-8.3311806 -5.6190982 1.4768358 0
-8.1477499 -5.6659718 1.4622345 0
-8.0168924 -5.7018495 1.4519668 0
-7.8864117 -5.7364626 1.4417344 0
-7.5296507 -7.3169465 1.4860842 0
-7.3648348 -8.3890629 1.5347149 0
-7.7164011 -5.7821002 1.4284928 0
-7.2076979 -8.3888922 1.5221387 0
-7.5918932 -5.8160076 1.4188669 0
-7.4664869 -5.8482895 1.4091434 0
-7.1058035 -8.3894157 1.514052 0
-6.9553251 -8.3901339 1.5021484 0
-7.2661343 -5.9025674 1.3938252 0
-7.0827436 -7.0578828 1.434535 0
-6.8070669 -8.390727 1.4904552 0
-7.1053534 -5.9437771 1.3815095 0
-7.0285645 -5.9648747 1.3757236 0
-6.8773975 -6.0063839 1.3643978 0
-6.6542082 -6.8110752 1.3852108 0
-4.022337 5.0095077 1.5987964 0
-3.8830576 5.0103683 1.5844558 0
-3.6764212 5.0098581 1.563175 0
-3.4779625 5.0108075 1.543051 0
-3.2513075 5.0100803 1.5201478 0
-3.0626078 5.009522 1.5012676 0
-2.9720612 5.0105715 1.4923992 0
-1.7350326 -1.4111851 1.5250239 0
-2.8497896 5.0091023 1.4802368 0
-2.6466188 5.010994 1.4606155 0
-2.502346 5.0103498 1.4466251 0
-1.3255467 5.0115023 1.6697425 0
-1.2078142 5.0102959 1.6562787 0
-1.0043945 5.0115252 1.6337698 0
-0.8728447 5.013237 1.6195459 0
-0.78450823 5.0119052 1.6097865 0
-0.6135006 5.011445 1.5914284 0
-0.40717983 5.0123649 1.5699214 0
-0.20788383 5.0139141 1.5497385 0
-0.03008461 5.0112796 1.5315782 0
4.2765851 -7.3809781 1.7063283 0
4.2768998 -7.5551844 1.7526796 0
4.276577 -7.744206 1.80304 0
4.275876 -7.9454207 1.8566992 0
4.2782712 -8.2569571 1.6797223 0
4.3964825 -8.3785133 1.7069771 0
4.2768331 -7.212183 1.6614448 0
4.5968184 -8.3772459 1.7063102 0
4.7089281 -8.3767233 1.7064885 0
4.8078642 -8.3799152 1.7079197 0
4.9935565 -8.3781519 1.709597 0
5.2031994 -8.3759003 1.7127802 0
5.4123626 -8.3761406 1.7179434 0
5.6092339 -8.3764219 1.7241404 0
5.7693911 -8.376545 1.7300626 0
5.8681202 -8.3764858 1.7341065 0
6.016624 -8.3765879 1.7409118 0
6.2278295 -8.375967 1.7515472 0
6.42805 -8.3763237 1.7631884 0
6.6295147 -8.3744183 1.775669 0
6.7946839 -8.3737984 1.78704 0
6.8982015 -8.3789549 1.7958759 0
7.0395141 -8.3755312 1.8061399 0
7.2479405 -8.3742256 1.8231759 0
7.4467115 -8.3754778 1.8411812 0
7.5426617 -7.3875594 1.8695598 0
7.5409994 -7.5578341 1.9129949 0
7.5443792 -7.9649229 1.7585995 0
7.5422683 -8.1222506 1.7934703 0
7.5433035 -8.2532892 1.8228391 0
7.5422869 -6.9404049 1.755613 0
7.5420332 -7.1241508 1.8022754 0
7.5426846 -7.2866631 1.8437734 0
-14.911445 -5.9636974 1.3561506 0
-14.90899 -6.1125722 1.3593276 0
-14.908702 -6.299912 1.3635995 0
-14.904262 -4.9289017 1.3351713 0
-14.904819 -5.0754299 1.3378584 0
-14.907376 -5.2962165 1.3421628 0
-14.906859 -5.5173335 1.3464916 0
-14.911166 -5.7404375 1.3513412 0
-14.90833 -5.888474 1.3543298 0
-14.905862 -4.7831478 1.33272 0
-14.907748 -4.8564487 1.3341005 0
-14.91607 5.8050375 1.3874736 0
-14.918237 6.8589478 1.4174175 0
-14.916968 6.6941109 1.4124353 0
-14.920911 6.4913487 1.40672 0
-14.916377 6.2867856 1.4006466 0
-14.917399 6.0855703 1.3951052 0
-14.917457 5.9252687 1.3907566 0
-14.919227 7.9089403 1.4509763 0
-14.920665 7.7389755 1.4453808 0
-14.920741 7.5272655 1.4384582 0
-14.917459 7.3156176 1.4314978 0
-14.919246 7.1078024 1.4250854 0
-14.915893 6.940546 1.4197623 0
-14.922515 8.6921253 1.4784746 0
-14.921668 8.5159826 1.4721165 0
-14.922111 8.3416481 1.4659848 0
-14.91775 8.123105 1.4581838 0
-14.711442 8.8072052 1.4718894 0
-14.537042 8.8068104 1.4630105 0
-14.365304 8.8065586 1.4542961 0
-14.197177 8.8069715 1.4458127 0
-13.948833 8.8072557 1.433316 0
-13.706399 8.8083658 1.4211942 0
-13.542571 8.8064222 1.4129305 0
-13.386071 8.8072729 1.4051633 0
-13.154565 8.8081427 1.3937037 0
-12.925778 8.808363 1.3823982 0
-12.776771 8.8090477 1.3750861 0
-12.625628 8.8074923 1.3676014 0
-9.8133879 -5.2200994 1.5970109 0
-9.1853724 -8.3924961 1.6836596 0
-9.6034412 -5.2783246 1.5797492 0
-9.1397161 -8.2456856 1.6716977 0
-9.056469 -8.3925934 1.6729594 0
-9.3939657 -5.3339596 1.5625358 0
-8.8632479 -8.3909979 1.6568698 0
-9.1878033 -5.3877993 1.5456538 0
-8.617527 -8.3918581 1.6366498 0
-8.991683 -5.4418235 1.5297818 0
-8.558217 -7.9102917 1.6046395 0
-8.4331512 -8.3903227 1.6214114 0
-8.798727 -5.4942555 1.514228 0
-8.2565603 -8.390645 1.6069775 0
-8.6567001 -5.5328288 1.5028341 0
-8.0234118 -8.3895435 1.5879066 0
-8.023139 -7.6016603 1.542956 0
-7.8024883 -8.3916969 1.570114 0
-7.5792484 -8.3895121 1.5519621 0
-6.23102 -6.1784821 1.7634631 0
-6.1625948 -6.1974435 1.7565606 0
-5.9664364 -6.2554264 1.7371695 0
-3.9928207 -1.2725567 1.6415784 0
-3.9890852 -1.3544451 1.6411488 0
-3.9917679 -0.23589838 1.6510684 0
-3.9903955 -0.36859101 1.6484085 0
-3.9931107 -0.56654906 1.6458497 0
-3.9931431 -0.78051871 1.6435156 0
-3.9907227 -0.99403512 1.641691 0
-3.9905891 -1.1743009 1.6411982 0
-4.8470259 5.0062337 1.6855636 0
-3.9925938 0.81066883 1.6829379 0
-3.9903183 0.63862395 1.6758981 0
-3.9935741 0.43498707 1.6692497 0
-3.9927387 0.23211956 1.6627703 0
-3.993 0.030839801 1.657325 0
-3.9928265 -0.13602841 1.653342 0
-4.691555 5.0078497 1.6690909 0
-3.9950476 1.8377296 1.7347773 0
-3.9923811 1.6555902 1.7238536 0
-3.9948969 1.4591743 1.7135543 0
-3.9945221 1.2641383 1.703589 0
-3.9931889 1.0534357 1.6934525 0
-3.992898 0.91432607 1.6872792 0
-4.4590397 5.0069222 1.6443413 0
-4.2715664 5.00665 1.6245736 0
-4.128211 5.0083632 1.6097213 0
-1.7605157 -1.4107131 1.7935388 0
-2.6257772 5.0105524 1.8250078 0
-2.4258986 5.0095086 1.8001055 0
-2.2351251 5.0113006 1.7769419 0
-2.0476146 5.0109978 1.7542219 0
-1.8393512 5.0103707 1.7292845 0
-1.6401181 5.0120006 1.7060633 0
-1.4437065 5.0106454 1.6831491 0
-0.41463089 5.0120096 1.8830029 0
-0.21478939 5.0130544 1.8578856 0
-0.02524662 5.0191431 1.8355078 0
4.274734 -8.1630812 1.9148079 0
4.3891001 -8.3794127 1.9712392 0
4.5897117 -8.3765287 1.9691576 0
4.7140908 -8.3774624 1.9692923 0
4.8132377 -8.3784933 1.9699701 0
4.9865179 -8.3765764 1.9710139 0
5.1960974 -8.376174 1.9742954 0
5.405303 -8.3756456 1.9791703 0
5.602118 -8.3747749 1.9851921 0
5.7499228 -8.3747778 1.9908159 0
5.8610244 -8.3757811 1.9959033 0
6.0218692 -8.3756638 2.0036972 0
6.220706 -8.3753672 2.0145926 0
6.420743 -8.3745871 2.0269167 0
6.6226683 -8.3757963 2.0413933 0
6.800632 -8.3750696 2.0548806 0
6.902771 -8.3733034 2.0627651 0
7.0324631 -8.3757153 2.074646 0
7.240541 -8.3732662 2.0931826 0
7.4390831 -8.373847 2.1130209 0
7.5410748 -7.7417803 1.9602638 0
7.5405798 -7.9346566 2.0099144 0
7.5395985 -8.1360826 2.0618501 0
7.5396919 -8.2646914 2.0951607 0
-9.3168001 -8.3927097 1.6946115 0
-7.7304688 -5.7810974 1.9212043 0
-7.6011295 -5.813395 1.9071221 0
-7.4770622 -5.8461714 1.8937752 0
-7.2770233 -5.9006014 1.8724718 0
-7.0573463 -7.0390024 1.9172838 0
-7.115119 -5.9414482 1.855154 0
-7.0041475 -5.9744534 1.8436435 0
-6.8474312 -6.0135975 1.8270431 0
-6.6377268 -6.7966514 1.8518791 0
-6.7007046 -6.054657 1.8118581 0
-6.5870905 -6.082891 1.7999501 0
-6.4472075 -6.123333 1.7857296 0
-6.3009596 -6.1597242 1.7705823 0
-6.2386246 -6.5671778 1.7897671 0
-3.9957943 -1.3535788 1.9825951 0
-3.9958181 -0.25223553 1.9939604 0
-3.996623 -0.36803865 1.9915795 0
-3.996541 -0.5661431 1.9878972 0
-3.9975996 -0.76350915 1.9854047 0
-3.9954653 -0.97694588 1.9831289 0
-3.9949474 -1.1898928 1.9822642 0
-3.9964285 0.34997082 2.0126631 0
-3.9969196 0.2321142 2.0084884 0
-3.9981441 0.031102896 2.0021358 0
-3.997489 -0.15236604 1.9968071 0
-3.8922319 5.0101686 1.9882324 0
-3.685524 5.0096722 1.960862 0
-3.4863586 5.0101972 1.9348301 0
-3.2599707 5.0097466 1.9054203 0
-3.0717115 5.0095897 1.8812127 0
-2.9818201 5.0111661 1.8699273 0
-2.8613272 5.011117 1.854651 0
-2.7398138 5.0088859 1.8390758 0
-1.6491513 5.0125904 2.0511858 0
-1.4308925 5.0131683 2.0202179 0
-1.2179112 5.0121474 1.9902574 0
-1.0135145 5.0125542 1.96225 0
-0.88097143 5.0133686 1.9444258 0
-0.79505348 5.0145507 1.9331253 0
-0.62280846 5.0129514 1.9101213 0
-8.7577219 -5.5036759 2.0340197 0
-11.249019 8.8052616 1.9869699 0
-8.5708199 -5.5546389 2.0132606 0
-8.3381424 -5.6156564 1.98744 0
-7.9949322 -7.5805664 2.0635111 0
-8.1613884 -5.6646781 1.9680835 0
-7.5378485 -8.3873663 2.0710886 0
-8.0256729 -5.6990194 1.9531239 0
-7.8975067 -5.734406 1.9392139 0
-7.3815403 -8.389204 2.0538428 0
-7.5137949 -7.3020287 1.9884155 0
-7.2228537 -8.388279 2.0361714 0
-7.1197147 -8.3881655 2.0247614 0
-6.9686022 -8.388607 2.0081475 0
-6.8165846 -8.3871145 1.9913318 0
-3.9981518 0.79342639 2.0321207 0
-3.9994049 0.63941216 2.0252502 0
-3.9991331 0.4520576 2.0172231 0
-4.0001497 1.8370548 2.094841 0
-4.0000076 1.6738266 2.0835238 0
-3.9981375 1.476015 2.0702384 0
-3.9998741 1.2638618 2.0576351 0
-3.9996071 1.0535372 2.0457308 0
-3.9977264 0.89680946 2.0371387 0
-4.472847 5.009521 2.0661089 0
-4.289463 5.0120268 2.041559 0
-4.1386557 5.008935 2.0209661 0
-4.0335159 5.0106134 2.0070758 0
-2.0596123 5.0138721 2.1111736 0
-1.8488183 5.0112424 2.0798569 0
-0.031863689 5.0178647 2.1439683 0
4.29566 -6.0102115 -0.24390477 0
4.3348646 -6.1889248 -0.25423524 0
4.5000811 -6.2547984 -0.25349778 0
4.6738396 -6.2939534 -0.2512936 0
4.7615952 -6.3113751 -0.25023967 0
4.903275 -6.3335152 -0.24848583 0
5.0976706 -6.3577399 -0.24623621 0
5.2951589 -6.3690686 -0.24376634 0
5.5654974 -6.3697186 -0.24050736 0
5.4699345 -6.3736315 -0.24178991 0
5.6993971 -6.366786 -0.23920363 0
5.9027605 -6.3476276 -0.23682258 0
6.1046743 -6.3175488 -0.23446843 0
6.3029237 -6.2756224 -0.23207822 0
6.5339842 -6.2157011 -0.22950298 0
6.4335732 -6.2478614 -0.23086971 0
6.7192602 -6.1554689 -0.22742951 0
6.9698792 -6.0607381 -0.22485447 0
6.8613315 -6.1038017 -0.22592258 0
7.1361485 -5.9824739 -0.22296628 0
7.3667974 -5.8578663 -0.22037116 0
7.262404 -5.9192367 -0.22165692 0
7.5628929 -5.6529522 -0.21346548 0
7.5110407 -5.7742982 -0.21904784 0
-14.887388 -4.0352783 -0.48460364 0
-14.690788 -3.6558185 -0.48555553 0
-14.793354 -3.773675 -0.48650271 0
-14.886511 -4.2150545 -0.48135096 0
-14.886024 -4.3952985 -0.4781307 0
-14.885719 -4.6122093 -0.47429883 0
-14.884302 -4.8296189 -0.47046393 0
-14.887405 -5.0120454 -0.46740472 0
-14.887327 -5.1945391 -0.46427774 0
-14.886909 -5.4142032 -0.4605394 0
-14.886114 -5.6346745 -0.45681566 0
-14.88751 -5.819499 -0.4537853 0
-14.886766 -6.0046096 -0.4507156 0
-14.885151 -6.227479 -0.44703358 0
-14.516956 -3.4619522 -0.48386544 0
-14.62315 -3.5780358 -0.48493767 0
-14.208157 -3.121599 -0.48085332 0
-14.3146 -3.2342196 -0.48196995 0
-14.418453 -3.3476818 -0.48300081 0
-14.01532 -2.9015324 -0.47915941 0
-14.114901 -3.0113218 -0.48010248 0
-13.848383 -2.7211599 -0.47753078 0
-13.947094 -2.8288841 -0.47847009 0
-13.556812 -2.4045177 -0.47477883 0
-13.652107 -2.508934 -0.47565162 0
-13.753458 -2.6146164 -0.47669166 0
-13.360514 -2.198751 -0.47282904 0
-13.461226 -2.301254 -0.473885 0
-13.293736 -2.1310689 -0.47212863 0
-11.785805 -1.9929659 -0.4291181 0
-11.570021 -1.8687011 -0.42502862 0
-11.364952 -1.7476189 -0.42121547 0
-9.7964668 -5.2173228 -0.31137922 0
-9.6328526 -5.2609572 -0.30580178 0
-9.475605 -5.3047667 -0.30041793 0
-9.3130875 -5.3455071 -0.29493386 0
-9.1079254 -5.4005527 -0.28796434 0
-9.2858887 -8.3881989 -0.25087878 0
-8.9054337 -5.4536476 -0.28111762 0
-9.0955658 -8.3298578 -0.24616754 0
-9.1551895 -8.3890944 -0.24711955 0
-8.7128773 -5.5069189 -0.27457589 0
-8.8924141 -8.3874884 -0.23961502 0
-8.5227318 -5.5583973 -0.26814577 0
-8.6553974 -7.9745941 -0.23807606 0
-8.7020912 -8.3870411 -0.23417985 0
-8.2868977 -5.6197209 -0.2602272 0
-8.5153275 -8.3865614 -0.22885329 0
-7.2930026 3.2026639 -0.41241452 0
-8.0604401 -5.680378 -0.2526139 0
-8.1782799 -7.6985183 -0.22791946 0
-8.3344955 -8.3868647 -0.22369462 0
-7.1088548 3.3339071 -0.41050306 0
-7.2011876 3.268847 -0.41147545 0
-7.8871369 -5.7286735 -0.24677318 0
-8.0953255 -8.3854437 -0.21690494 0
-6.8839822 3.494885 -0.40825123 0
-6.9975514 3.4155011 -0.40943125 0
-7.7125945 -5.7743592 -0.24094665 0
-7.7333674 -7.441144 -0.21845058 0
-7.9326959 -8.3909092 -0.21221703 0
-6.6410651 3.6674685 -0.40586406 0
-6.749414 3.5888271 -0.40687507 0
-7.4997067 -5.8299599 -0.23385864 0
-7.7537961 -8.3860006 -0.20720124 0
-6.5261006 3.7415886 -0.40456036 0
-7.2939105 -5.8848271 -0.22700709 0
-7.3197875 -7.2016559 -0.20965457 0
-7.5328479 -8.3859501 -0.20094413 0
-6.3029008 3.8889308 -0.40217081 0
-6.4122977 3.8150759 -0.40328681 0
-7.1366725 -5.9288487 -0.22175473 0
-7.0154071 -5.9594502 -0.21775928 0
-7.3714232 -8.3862734 -0.19637614 0
-6.0656962 4.0488062 -0.39979887 0
-6.1715713 3.9760456 -0.40080771 0
-6.901648 -5.9914823 -0.21397054 0
-6.9321094 -6.9772429 -0.20141134 0
-5.8278975 4.2021852 -0.39731187 0
-5.9331679 4.1318021 -0.39833355 0
-6.710196 -6.0418086 -0.20765895 0
-5.6754136 4.2957721 -0.39562851 0
-6.526711 -6.0923471 -0.20159322 0
-6.5677428 -6.7664266 -0.19366521 0
-5.4631629 4.4283781 -0.39340407 0
-6.3444533 -6.1403108 -0.19561732 0
-5.2108722 4.5825205 -0.39074543 0
-5.3160071 4.5192294 -0.3918677 0
-6.1374021 -6.198904 -0.18879277 0
-6.2180371 -6.5651526 -0.18621957 0
-4.9637733 4.7328143 -0.38821584 0
-5.0647378 4.6697197 -0.38919038 0
-5.90626 -6.2667689 -0.18117112 0
-4.8381476 4.8039799 -0.38681501 0
-4.6156249 4.93541 -0.38454491 0
-4.7156301 4.8757577 -0.38553628 0
-4.4215751 5.005959 -0.38131404 0
-4.209394 5.0110106 -0.37566194 0
-4.0674825 5.011476 -0.37180763 0
-1.1104598 -2.3524232 -0.32795471 0
-1.1436157 -2.5193806 -0.32793468 0
-1.1805305 -2.7134833 -0.32805619 0
-1.2084403 -2.9096918 -0.32784697 0
-1.2349839 -3.1094954 -0.32779178 0
-1.2551718 -3.3117146 -0.32758978 0
-1.2701783 -3.5165758 -0.32732239 0
-1.2798076 -3.7110233 -0.32703412 0
-1.2850943 -3.9078774 -0.32672203 0
-1.2837682 -4.1060495 -0.32624358 0
-1.2803869 -4.307416 -0.32589677 0
-1.2710419 -4.4545827 -0.32537344 0
-0.90760374 -1.6080842 -0.32707655 0
-0.94444466 -1.7303432 -0.32715756 0
-1.0016313 -1.9222662 -0.3274748 0
-1.0540762 -2.1177521 -0.32771221 0
-1.0824971 -2.2457273 -0.32763466 0
-1.2673497 -4.5504651 -0.32526064 0
-1.251965 -4.7129149 -0.32465628 0
-1.2305574 -4.9183717 -0.32399982 0
-1.2112336 -5.0549917 -0.32340181 0
-0.5956912 -0.80664802 -0.32519454 0
-0.65726805 -0.94886625 -0.32552227 0
-0.73744488 -1.1457413 -0.32594535 0
-0.37850332 -0.37826967 -0.3233819 0
-0.47267866 -0.5605008 -0.32404932 0
-0.54579401 -0.70730776 -0.32463938 0
-0.14646101 0.01403594 -0.32128701 0
-0.26844645 -0.18282306 -0.32247958 0
-0.32465363 -0.28473556 -0.32280904 0
0.089915752 0.37385714 -0.31944442 0
-0.026330948 0.20316374 -0.32038397 0
0.34100389 0.70750248 -0.31724352 0
0.24999523 0.58830154 -0.31794989 0
0.15856647 0.46750844 -0.31877828 0
0.52136278 0.92050278 -0.31547025 0
0.42206955 0.80388367 -0.31639531 0
0.71734762 1.1367928 -0.3136481 0
0.60673761 1.0165097 -0.31465191 0
0.91149712 1.331585 -0.31167871 0
0.81283283 1.232067 -0.31254354 0
1.2200265 1.6141607 -0.3085762 0
1.1025457 1.5095931 -0.30972946 0
1.4423082 1.796744 -0.30627292 0
1.3347216 1.7091855 -0.30735782 0
1.5454791 1.8793954 -0.30539086 0
1.1470323 -3.8729253 -0.17863959 0
1.7762017 2.0473528 -0.30302238 0
1.5490041 -1.8105581 -0.29817745 0
1.5403776 -1.9370234 -0.29748178 0
1.5253379 -2.1229796 -0.29727635 0
1.5141778 -2.2817254 -0.29750797 0
1.2994509 -3.873044 -0.16971159 0
2.0101421 2.2017784 -0.30050102 0
1.9087305 2.1382618 -0.30167884 0
1.8216691 -0.81213027 -0.29655308 0
1.7670712 -0.95426655 -0.29689395 0
1.7020237 -1.1448697 -0.29730129 0
1.6564975 -1.3035401 -0.29745308 0
1.5887897 -1.5932497 -0.29777226 0
1.5687189 -1.7316506 -0.29741427 0
1.5500684 -1.8779438 -0.29717615 0
1.5264721 -2.2026219 -0.29663634 0
1.520088 -2.3421359 -0.29675132 0
1.5226238 -2.5231638 -0.29641724 0
1.5364015 -2.727057 -0.29579067 0
1.5594549 -2.9356084 -0.29518619 0
1.5948956 -3.1351874 -0.29419735 0
1.6258037 -3.2843568 -0.29355451 0
1.490839 -3.8731537 -0.15858781 0
2.2589645 2.3524451 -0.29787278 0
2.1590357 2.2932668 -0.29890782 0
2.0297251 -0.38220465 -0.29490823 0
1.9392147 -0.55719 -0.29551047 0
1.8616211 -0.72120172 -0.29616642 0
1.6514397 -3.3851089 -0.29298067 0
1.6970768 -3.5486107 -0.29215994 0
1.7570481 -3.7351418 -0.291179 0
1.6846819 -3.872529 -0.14743182 0
2.4134011 2.4406486 -0.29637739 0
2.2643065 -0.0073826313 -0.29305577 0
2.1561954 -0.1690762 -0.29393959 0
2.0841234 -0.28851855 -0.29437241 0
1.8875251 -3.8538775 -0.28302494 0
1.8833153 -3.8717461 -0.19956627 0
2.6188412 2.543952 -0.29396766 0
2.5214427 2.4985957 -0.29524779 0
2.5170348 0.31329465 -0.29079551 0
2.4296207 0.20466816 -0.29130286 0
2.3293023 0.079790831 -0.29235488 0
2.1018767 -3.8728151 -0.19936541 0
2.0060763 -3.8734369 -0.1292337 0
2.9062748 2.6794143 -0.29092625 0
2.8010967 2.6344213 -0.29221877 0
2.7109051 0.51850545 -0.28892753 0
2.6083453 0.41254282 -0.28988326 0
2.2893286 -3.8727336 -0.18549129 0
3.0261767 2.7306085 -0.28965038 0
2.9172089 0.70789301 -0.28687531 0
2.8187912 0.61970651 -0.28778708 0
2.7993181 -1.0478213 -0.28444359 0
2.7463901 -1.2264254 -0.28460282 0
2.6774862 -1.4422175 -0.25706431 0
2.6663659 -1.6042383 -0.2726782 0
2.6545727 -1.8291075 -0.28448108 0
2.6522799 -2.0067949 -0.28418785 0
2.6660912 -2.2336195 -0.28355372 0
2.688514 -2.4078076 -0.28299689 0
2.4895101 -3.8726268 -0.23324397 0
3.3264673 2.8492656 -0.28653154 0
3.2244339 2.8070145 -0.28734353 0
3.1430697 0.88409793 -0.2843281 0
3.0291033 0.79882228 -0.28566897 0
3.0478823 -0.50813484 -0.28255364 0
2.9749293 -0.63778037 -0.28326899 0
2.8790193 -0.84113228 -0.28384361 0
2.833348 -0.95111501 -0.28424546 0
2.7072034 -2.505466 -0.28241837 0
2.7337229 -2.6233668 -0.28191194 0
2.794456 -2.8345666 -0.28077936 0
2.8452404 -2.9804449 -0.28001001 0
2.690521 -3.8736057 -0.21719038 0
3.4343233 2.8831325 -0.2851181 0
3.3792155 1.0433913 -0.28173012 0
3.2689698 0.97293603 -0.28306204 0
3.2901623 -0.15630269 -0.28105912 0
3.2138553 -0.25839579 -0.28139997 0
3.1113272 -0.40502834 -0.28217143 0
2.891598 -3.0878615 -0.27908927 0
2.9711044 -3.2521181 -0.27781576 0
3.030344 -3.3601878 -0.27681753 0
2.8906507 -3.8720245 -0.20152763 0
3.6482973 2.9512525 -0.28273606 0
3.5059695 1.1221095 -0.28066856 0
3.4901404 0.059087992 -0.27898526 0
3.3842463 -0.052966833 -0.2798388 0
3.4286027 -0.97151124 -0.2774761 0
3.3907714 -1.0776327 -0.2774955 0
3.3337092 -1.273834 -0.27767313 0
3.2940583 -1.473856 -0.27784395 0
3.2754433 -1.6631204 -0.277601 0
3.2735927 -1.8747989 -0.27722108 0
3.2900784 -2.0658915 -0.27664617 0
3.3142624 -2.2170184 -0.27613455 0
3.097928 -3.4711418 -0.27591482 0
3.1894538 -3.608398 -0.27467215 0
3.090996 -3.8730912 -0.18643513 0
3.8737259 3.014441 -0.28021502 0
3.7791986 2.9895587 -0.28129894 0
3.7386498 1.2465514 -0.27820498 0
3.63732 1.1908983 -0.27887067 0
3.6929312 0.23803711 -0.27688822 0
3.5843544 0.14483178 -0.2778855 0
3.6483574 -0.56139368 -0.27594015 0
3.567009 -0.69380832 -0.27636361 0
3.4744561 -0.87335151 -0.27681491 0
3.3411252 -2.3275235 -0.27541876 0
3.3898697 -2.487792 -0.2745415 0
3.4555869 -2.6560144 -0.27336955 0
3.2715843 -3.7124372 -0.27330622 0
3.3217981 -3.850934 -0.21298894 0
4.0646749 3.0620375 -0.27814439 0
3.9254889 1.3307878 -0.27609891 0
3.9116125 0.39805984 -0.27479789 0
3.8159199 0.32959712 -0.27549988 0
3.8200231 -0.34633577 -0.2741158 0
3.7105014 -0.48153281 -0.27485889 0
3.8185196 -0.98280787 -0.27290982 0
3.7720575 -1.1061481 -0.27269599 0
3.7102416 -1.3104262 -0.27330169 0
3.6770673 -1.5028498 -0.27328596 0
3.6657081 -1.7129087 -0.27297539 0
3.6782231 -1.9020462 -0.27219459 0
3.7126458 -2.0996184 -0.27133951 0
3.5059841 -2.7612009 -0.27243784 0
3.5905819 -2.9107609 -0.27115783 0
3.6579337 -3.0140796 -0.26997814 0
3.4870114 -3.8716979 -0.21608171 0
4.2565866 3.0928059 -0.27526292 0
4.1277628 1.4103907 -0.27389586 0
4.0220699 1.3686963 -0.27482498 0
4.0422397 0.47561014 -0.27322516 0
4.0192137 -0.15234506 -0.2721051 0
3.9200621 -0.24276233 -0.27300271 0
4.0485773 -0.60889053 -0.27085397 0
3.9640005 -0.72519231 -0.27161962 0
3.8638043 -0.89265287 -0.27240828 0
4.008986 -1.2005264 -0.27026761 0
3.9784441 -1.3187522 -0.26999468 0
3.9449794 -1.532568 -0.26987314 0
3.940753 -1.7303036 -0.26980245 0
3.9521704 -1.860418 -0.26935142 0
3.7367699 -2.1947379 -0.27089688 0
3.7787216 -2.317373 -0.27019975 0
3.8574734 -2.496917 -0.26889825 0
3.7421384 -3.1255736 -0.26878825 0
3.8336442 -3.2354274 -0.267526 0
3.6970611 -3.8723402 -0.19507855 0
4.4594803 3.0972705 -0.27065897 0
4.3175983 1.4732951 -0.27179438 0
4.2888818 0.602754 -0.27065063 0
4.1808991 0.55156362 -0.27177617 0
4.2314773 0.0083210468 -0.26994401 0
4.1326761 -0.061336517 -0.27084714 0
4.2446327 -0.40172207 -0.26906395 0
4.1293225 -0.51706815 -0.2700817 0
4.2199059 -0.79143173 -0.26833248 0
4.1300101 -0.93241769 -0.26909235 0
4.0801358 -1.1291168 -0.26933229 0
4.1719007 -1.342819 -0.26801518 0
4.142787 -1.5484177 -0.26769656 0
4.1448307 -1.7395866 -0.26746407 0
3.9882164 -1.9433066 -0.26829955 0
4.0195093 -2.1328943 -0.26784253 0
4.0870266 -2.2964458 -0.26657075 0
3.9145675 -2.5994039 -0.26784176 0
4.0054121 -2.7347343 -0.26662734 0
3.9438763 -3.3468299 -0.26606146 0
3.9009614 -3.8720598 -0.18249491 0
4.6600928 3.09723 -0.26622146 0
4.5865569 1.5444628 -0.26876944 0
4.4866228 1.5207485 -0.26992521 0
4.4687209 0.6747297 -0.26853687 0
4.4881186 0.15441918 -0.26725703 0
4.3788128 0.097933531 -0.26843983 0
4.4588504 -0.23709273 -0.26703802 0
4.3485465 -0.31743681 -0.26785353 0
4.3972406 -0.59109557 -0.26664323 0
4.3356199 -0.74717897 -0.2673409 0
4.3357019 -0.95171767 -0.26672962 0
4.2439137 -1.1215117 -0.26768351 0
4.1828871 -1.9469866 -0.26623255 0
4.2569656 -2.1534648 -0.26488435 0
4.1913805 -2.3676605 -0.26530588 0
4.2295599 -2.5300884 -0.2645112 0
4.0838852 -2.8348465 -0.26530948 0
4.1756573 -2.9340029 -0.26426733 0
4.0418081 -3.4334116 -0.26446822 0
4.1311584 -3.5041566 -0.26337394 0
4.0976033 -3.8712249 -0.1694468 0
4.8595533 3.0974956 -0.26226777 0
4.7354312 1.5744449 -0.26706961 0
4.6937375 0.74697888 -0.26607639 0
4.6024799 0.72013032 -0.26700997 0
4.6289573 0.21323574 -0.26548254 0
4.5954075 -0.15981948 -0.26535916 0
4.605835 -0.42552066 -0.26485232 0
4.5741715 -0.57383305 -0.26469165 0
4.5143933 -0.72953182 -0.26507032 0
4.3914671 -2.3807402 -0.26310697 0
4.4383826 -2.5373111 -0.26227701 0
4.4111118 -2.7312052 -0.26184234 0
4.2937441 -3.0405478 -0.26218435 0
4.3833871 -3.1114993 -0.26125085 0
4.3045325 -3.6222677 -0.26114628 0
4.3938217 -3.675868 -0.26017699 0
4.2698674 -3.9245243 -0.16067202 0
4.2939982 -4.1628213 -0.17744541 0
4.29421 -4.3692708 -0.19338182 0
4.3045015 -4.5433841 -0.20081097 0
4.294137 -4.7627563 -0.16431718 0
4.2944851 -4.9574819 -0.17654604 0
4.2952733 -5.081965 -0.1843839 0
5.1278982 3.0971136 -0.25757581 0
5.042901 3.0961919 -0.25890312 0
4.9490066 1.6076878 -0.26464134 0
4.8763967 0.78925574 -0.263964 0
4.9211502 0.30715334 -0.26259792 0
4.8170052 0.27858257 -0.26361856 0
4.8319473 -0.057230234 -0.26268336 0
4.7592673 -0.13444746 -0.26335812 0
4.7781987 -0.35475791 -0.26263058 0
4.7530513 -0.54497707 -0.26281887 0
4.6023755 -2.5987914 -0.25986281 0
4.5459852 -2.8422327 -0.26003087 0
4.63835 -2.904618 -0.25889722 0
4.5535088 -3.2207477 -0.25908971 0
4.5116138 -3.7328525 -0.25849265 0
4.4393601 -4.565094 -0.25785702 0
4.2945347 -5.184432 -0.15727967 0
4.2936349 -5.3425236 -0.1316694 0
4.2943363 -5.5509086 -0.14149302 0
4.294816 -5.7516856 -0.15100877 0
4.2942653 -5.9293232 -0.14333825 0
4.2943497 -6.1439533 -0.086769357 0
4.2947273 -6.3676529 -0.093669832 0
4.2940097 -6.5747399 -0.10010603 0
4.2942371 -6.749465 -0.10553217 0
4.2942624 -6.9372478 -0.11138305 0
4.2947273 -7.1362076 -0.11758649 0
4.2950478 -7.350769 -0.12429574 0
4.2962675 -7.5164876 -0.12946525 0
5.271966 3.0967779 -0.25540721 0
5.1471648 1.6251475 -0.26210028 0
5.0680094 0.82135594 -0.2618956 0
5.0345149 0.32839799 -0.26111472 0
5.0043139 -0.0077191591 -0.26071596 0
4.9912591 -0.25170875 -0.26032415 0
4.9747772 -0.44116497 -0.26033491 0
4.7123399 -2.6812108 -0.25832257 0
4.8024273 -2.7344153 -0.25738448 0
4.762536 -2.9696887 -0.25697237 0
4.6655698 -3.2797956 -0.25766018 0
4.7662821 -3.3224227 -0.2563456 0
4.7077212 -3.8112812 -0.2558654 0
4.6372247 -4.6309886 -0.25527698 0
4.2954969 -7.6416135 -0.13341165 0
4.2951183 -7.7694912 -0.13743988 0
4.2961602 -7.962338 -0.14348745 0
4.2957931 -8.1747169 -0.1501891 0
4.3601742 -8.378829 -0.1552911 0
5.4640155 3.096786 -0.25289017 0
5.3541684 1.6363624 -0.2598516 0
5.2780666 0.83880699 -0.25933662 0
5.2438989 0.35443759 -0.25864562 0
5.219254 0.028758168 -0.25831538 0
5.1922164 -0.20821738 -0.25808847 0
5.1787572 -0.38697195 -0.25807574 0
4.9832783 -2.8128996 -0.25500125 0
4.9661455 -3.05089 -0.25454733 0
4.9507222 -3.3828623 -0.25400472 0
4.90025 -3.8686175 -0.25349942 0
4.8410635 -4.6835938 -0.25278476 0
4.5304089 -8.3793297 -0.15190989 0
5.63235 3.0961151 -0.25096714 0
5.532505 1.6354698 -0.25770304 0
5.4642992 0.8419944 -0.25720164 0
5.4316959 0.35999072 -0.25638521 0
5.4219956 0.037458062 -0.25582305 0
5.3936772 -0.19408739 -0.25568253 0
5.3697786 -0.36856008 -0.2559092 0
5.197063 -2.8669484 -0.25230834 0
5.1486397 -3.0953026 -0.25241819 0
5.1504736 -3.4241962 -0.25157344 0
5.0922418 -3.9076905 -0.25131571 0
5.0304766 -4.7173829 -0.25047058 0
4.73598 -8.3785095 -0.14805505 0
5.9183187 3.0983377 -0.24869072 0
5.7773037 1.6237012 -0.25507644 0
5.7087126 0.82359517 -0.25390974 0
5.6721292 0.34407794 -0.25370118 0
5.6269307 0.022842169 -0.25342458 0
5.620584 -0.21105635 -0.25311643 0
5.5975513 -0.38465571 -0.25319862 0
5.3733544 -2.8824794 -0.25018695 0
5.3616724 -3.116864 -0.24996677 0
5.320858 -3.4406316 -0.24951303 0
5.3025889 -3.9274292 -0.24865469 0
5.2354364 -4.7373152 -0.24785298 0
5.2163467 -4.7402396 -0.24847752 0
4.9282708 -8.3786526 -0.14477028 0
6.0666151 3.0979061 -0.2477687 0
5.9441848 1.602476 -0.25284749 0
5.8794889 0.79865253 -0.25179684 0
5.8530631 0.31284928 -0.2515617 0
5.8207574 -0.015058875 -0.25103712 0
5.8012018 -0.25185657 -0.25080836 0
5.7836571 -0.4316293 -0.25060323 0
5.5793424 -2.8690469 -0.24786273 0
5.5597377 -3.1064985 -0.24733192 0
5.5347028 -3.4376516 -0.24710092 0
5.5022984 -3.9275494 -0.24627528 0
5.4293365 -4.7447233 -0.24569616 0
5.1318374 -8.3793869 -0.14162122 0
6.2666717 3.0985065 -0.24697322 0
6.1391587 1.5704256 -0.25043043 0
6.0763683 0.75830781 -0.24958786 0
6.0396109 0.26367462 -0.24931666 0
6.0087519 -0.074492693 -0.24860865 0
5.994915 -0.32283413 -0.24850202 0
5.9760909 -0.51395905 -0.24792027 0
5.8821864 -2.7822778 -0.2437703 0
5.7843943 -2.8216624 -0.24587184 0
5.7652979 -3.0688562 -0.24520898 0
5.7469993 -3.4076371 -0.24466625 0
5.7005334 -3.9091663 -0.24397594 0
5.6314697 -4.7343907 -0.2431336 0
5.3349695 -8.379837 -0.13877936 0
6.4680634 3.0983315 -0.24654835 0
6.3385673 1.527691 -0.24802738 0
6.2708721 0.702016 -0.24721164 0
6.1706176 0.21746707 -0.24754557 0
6.2788372 0.17071354 -0.24601257 0
6.2028847 -0.16195571 -0.24614367 0
6.1477246 -0.34824955 -0.24634984 0
6.1623869 -0.4922092 -0.24610302 0
6.1832609 -0.64881313 -0.24551249 0
5.9915681 -2.7299848 -0.24311706 0
6.0128994 -2.9472022 -0.24237075 0
5.9277515 -3.0167503 -0.24336147 0
5.9491391 -3.3524089 -0.24231699 0
5.8482456 -3.3875463 -0.24401456 0
5.9036288 -3.8722162 -0.24191719 0
5.8345799 -4.7118583 -0.24089807 0
5.5977645 -8.3794165 -0.1355323 0
5.5209737 -8.3796864 -0.13644102 0
6.6707454 3.09795 -0.24653512 0
6.5507917 1.4695979 -0.24542814 0
6.4646201 0.62784517 -0.24455941 0
6.4293923 0.094752073 -0.24412486 0
6.4034886 -0.28556788 -0.24364543 0
6.3527479 -0.55380911 -0.24366629 0
6.3588967 -0.71453631 -0.24330536 0
6.3921528 -0.86591929 -0.24229375 0
6.2448368 -2.5494299 -0.24060279 0
6.1699657 -2.6798131 -0.24148807 0
6.1758246 -2.8883977 -0.24051663 0
6.2528 -3.2168491 -0.2388705 0
6.1481867 -3.2713494 -0.2401416 0
6.1740136 -3.7869477 -0.2387788 0
6.0692081 -3.82408 -0.23990348 0
6.0348411 -4.6740437 -0.23872498 0
5.7413545 -8.37957 -0.13401055 0
6.867414 3.0704913 -0.24502242 0
6.7412963 1.4054989 -0.24299932 0
6.5866213 0.57452142 -0.24305987 0
6.6899977 0.52263105 -0.24178785 0
6.5822897 0.0027554035 -0.24222133 0
6.678678 -0.06543541 -0.24092281 0
6.535686 -0.3894639 -0.24176571 0
6.6347342 -0.48310125 -0.24041706 0
6.527071 -0.7369889 -0.24097034 0
6.5388069 -0.93466538 -0.24083805 0
6.5446577 -1.12801 -0.24002752 0
6.6003451 -1.2848473 -0.23875916 0
6.5185876 -2.1836226 -0.23815787 0
6.4353819 -2.3267331 -0.23899305 0
6.4024391 -2.5177209 -0.23886216 0
6.3858719 -2.7258275 -0.23845568 0
6.3706632 -3.1422596 -0.23775962 0
6.3186216 -3.7216663 -0.2369976 0
6.2851782 -4.6014628 -0.23569012 0
6.1791067 -4.6353025 -0.23692518 0
5.9330974 -8.377203 -0.13212648 0
7.0648751 3.0245786 -0.24264738 0
6.8585091 1.3604499 -0.24144024 0
6.9629641 1.3172048 -0.24017128 0
6.8487835 0.43129659 -0.23968986 0
6.8108964 -0.17419267 -0.23917192 0
6.7247195 -0.58167356 -0.23928568 0
6.8185058 -0.70598036 -0.23770195 0
6.6863403 -0.97830975 -0.23865896 0
6.7634149 -1.1541576 -0.23744038 0
6.6729627 -1.3481803 -0.23824796 0
6.6456413 -1.5428493 -0.23820826 0
6.6425533 -1.7344897 -0.23751348 0
6.6103973 -1.9314694 -0.23767594 0
6.6062164 -2.1232085 -0.23754108 0
6.6808419 -2.3434501 -0.23587334 0
6.5753517 -2.513427 -0.23677054 0
6.6041946 -2.9516382 -0.23541588 0
6.4928036 -3.0563529 -0.23696512 0
6.5615807 -3.5874305 -0.23462668 0
6.4526443 -3.6564984 -0.23602077 0
6.4448242 -4.5437517 -0.23411888 0
6.1381841 -8.3796682 -0.13058309 0
7.265635 2.9687114 -0.24004906 0
7.1222477 1.2427701 -0.23808724 0
6.9709311 0.35295963 -0.2381658 0
7.0729895 0.27762234 -0.23672101 0
6.9001975 -0.25842083 -0.23769775 0
6.9947157 -0.35881567 -0.23658091 0
6.8851748 -0.80775517 -0.23683247 0
6.9668317 -0.96284592 -0.23556292 0
7.0181508 -1.0849857 -0.23444566 0
6.8264232 -1.3777118 -0.23630002 0
6.8493509 -1.5578202 -0.23562863 0
6.8497858 -1.7493136 -0.23526955 0
6.8179002 -1.9682441 -0.23491886 0
6.7709818 -2.1413224 -0.23549435 0
6.8796659 -2.6069107 -0.23292834 0
6.7697968 -2.7655137 -0.23381734 0
6.6908474 -2.8647313 -0.23476559 0
6.7892914 -3.4157252 -0.23217022 0
6.6877937 -3.4989901 -0.23333627 0
6.7035046 -4.4195685 -0.23097762 0
6.6054277 -4.4706039 -0.2321313 0
6.3441181 -8.3777828 -0.12920615 0
7.4181023 2.9236212 -0.23818955 0
7.5152011 2.890142 -0.23682699 0
7.2957315 1.1553072 -0.23608911 0
7.3896294 1.0979923 -0.23450866 0
7.2078686 0.1684258 -0.23495802 0
7.3007207 0.085077882 -0.23369658 0
7.0919862 -0.46788883 -0.2358889 0
7.162703 -0.57611954 -0.23397458 0
7.2471571 -0.70934147 -0.23265973 0
7.0561543 -1.194345 -0.23405853 0
7.1002636 -1.3772091 -0.23297676 0
7.1261258 -1.5825251 -0.23212528 0
7.129703 -1.7757215 -0.23182741 0
7.1079903 -1.9846878 -0.23153877 0
7.0636854 -2.1815197 -0.23160094 0
6.9966273 -2.3749862 -0.23208529 0
6.931962 -2.5198565 -0.2329604 0
7.0028582 -3.2033591 -0.23011011 0
6.8976121 -3.3154898 -0.23108953 0
6.9600849 -4.2657056 -0.22838944 0
6.8548851 -4.3353219 -0.22967541 0
6.5397682 -8.3779793 -0.12825665 0
7.5572977 2.7787971 -0.22977111 0
7.5584202 2.5995722 -0.21780705 0
7.5575194 2.3959556 -0.20428821 0
7.5573258 2.192831 -0.19091824 0
7.5575094 1.9923235 -0.17785507 0
7.5563583 1.7917851 -0.16490474 0
7.5568905 1.6565541 -0.1562781 0
7.5105066 1.0071086 -0.23154452 0
7.5592432 0.79015505 -0.21505871 0
7.5589118 0.581231 -0.19774473 0
7.556386 0.47637427 -0.18914339 0
7.4096851 -0.025401473 -0.23214963 0
7.4989824 -0.12204111 -0.23102164 0
7.3034754 -0.813537 -0.2318882 0
7.3847828 -0.99726021 -0.23043269 0
7.4275494 -1.1112545 -0.22976923 0
7.2662864 -2.82868 -0.227851 0
7.1657305 -2.9911985 -0.22864705 0
7.0834484 -3.1073928 -0.22944224 0
7.0798969 -4.180048 -0.22733802 0
6.736824 -8.375968 -0.12751518 0
7.5584626 0.38238192 -0.18185031 0
7.5578918 0.19228899 -0.16728166 0
7.5583048 -0.0087388754 -0.15269588 0
7.5546227 -0.21791279 -0.18295255 0
7.5584402 -0.41058207 -0.17139208 0
7.5583267 -0.5999257 -0.15710503 0
7.559103 -0.7884174 -0.15959549 0
7.5590353 -1.0120641 -0.17446196 0
7.5080419 -1.2145917 -0.19734395 0
7.5274806 -1.4187357 -0.19767654 0
7.5416908 -1.6194404 -0.19718432 0
7.5449538 -1.8132131 -0.1942223 0
7.5324297 -2.0098312 -0.20312896 0
7.4910159 -2.2185273 -0.22659275 0
7.4433603 -2.4106734 -0.22686121 0
7.3728142 -2.6081476 -0.22721115 0
7.3142476 -2.7394388 -0.22760952 0
7.3943334 -3.899622 -0.22413296 0
7.2901235 -4.0020752 -0.22522491 0
6.9365044 -8.3763542 -0.12712644 0
7.5604343 -2.0347424 -0.15309882 0
7.5606904 -2.2312472 -0.1353144 0
7.5590377 -2.4242659 -0.11640777 0
7.5600657 -2.6317027 -0.12314732 0
7.5595231 -2.8141274 -0.12851766 0
7.5601573 -3.0190997 -0.13600591 0
7.5601873 -3.2195535 -0.14641301 0
7.5606241 -3.427424 -0.15648234 0
7.5608506 -3.6270375 -0.16672388 0
7.5137825 -3.8167605 -0.17606032 0
7.5603929 -4.0240598 -0.12815809 0
7.5605917 -4.2257657 -0.13758749 0
7.5611277 -4.3746991 -0.14482105 0
7.1392031 -8.3784847 -0.12707452 0
7.5617537 -4.4697232 -0.14955841 0
7.5614433 -4.637218 -0.13122779 0
7.5604954 -4.8204618 -0.10280101 0
7.5607824 -5.0279293 -0.1019942 0
7.5609155 -5.2337785 -0.11482109 0
7.5609756 -5.4333124 -0.12291552 0
7.5603189 -5.6193438 -0.072411746 0
7.5609198 -5.8296151 -0.055116788 0
7.5615997 -6.0235596 -0.06031841 0
7.5606098 -6.2284236 -0.065877616 0
7.5612001 -6.4294477 -0.071419269 0
7.5617404 -6.6207261 -0.076753184 0
7.5613475 -6.7963171 -0.081689015 0
7.3433743 -8.3751764 -0.12714496 0
7.5613337 -6.9017272 -0.08467336 0
7.5619822 -7.0413675 -0.088656798 0
7.5625095 -7.2454519 -0.094512254 0
7.5624757 -7.4299984 -0.099844098 0
7.5624876 -7.6254892 -0.1055295 0
7.5637188 -7.836277 -0.11170423 0
7.5628633 -8.0539923 -0.11811179 0
7.5634208 -8.2496929 -0.12390669 0
7.500093 -8.3781624 -0.12754972 0
-3.9613385 5.0107865 -0.3688997 0
-3.8245549 5.0112448 -0.36520255 0
-3.9710946 1.8685781 -0.28029528 0
-3.5891404 5.0106916 -0.35881981 0
-3.6898875 5.0116358 -0.36156878 0
-3.9683928 1.8306376 -0.27922606 0
-3.9707961 1.7212425 -0.27645653 0
-3.9682527 1.5202013 -0.27120858 0
-3.9723887 1.3237175 -0.26633567 0
-3.9685845 1.1272036 -0.26129222 0
-3.9676757 0.91621912 -0.25604153 0
-3.9700303 0.72564495 -0.25145704 0
-3.9692969 0.53612435 -0.24686992 0
-3.9693818 0.331352 -0.24200895 0
-3.9690289 0.12821746 -0.23724672 0
-3.9681802 -0.073459744 -0.23257631 0
-3.9682908 -0.27364898 -0.22804144 0
-3.9704814 -0.47248697 -0.22367221 0
-3.9721532 -0.63756877 -0.22009265 0
-3.4277539 5.01161 -0.35450196 0
-3.9669433 -0.68747967 -0.21885139 0
-3.9697766 -0.86811131 -0.21504161 0
-3.9667153 -1.0323367 -0.21145844 0
-3.2046933 5.0103197 -0.34848011 0
-2.9920363 5.0119104 -0.342852 0
-2.8121362 5.0108948 -0.33804044 0
-2.6094689 5.0106783 -0.33267438 0
-2.4154992 5.0129724 -0.32764184 0
-2.2226014 5.0112252 -0.32253847 0
-2.013598 5.013617 -0.31717473 0
-1.8064489 5.0118141 -0.31175971 0
-1.6088233 5.0130167 -0.3067193 0
-1.4155293 5.0128384 -0.30177832 0
-1.1123314 5.0119529 -0.2940743 0
-1.2267604 5.0116272 -0.29695129 0
-1.0006771 5.0126967 -0.29129553 0
-0.80293894 5.0127444 -0.28636169 0
-0.5889945 5.0118513 -0.28103665 0
-0.38290691 5.0122089 -0.27599382 0
-0.18437862 5.0141454 -0.27123457 0
0.061193943 5.1401138 -0.26958251 0
0.015745163 5.0306077 -0.26697415 0
1.7443776 3.095839 -0.16049044 0
1.1369443 -3.8738661 -0.0096662343 0
1.8606038 3.0956235 -0.15774873 0
1.2938004 -3.8717537 -0.0052847043 0
2.0608292 3.0957017 -0.15309581 0
1.4831061 -3.8733759 2.2597611e-05 0
2.2533724 3.0954685 -0.14868718 0
1.6774566 -3.8727598 0.005407095 0
2.4500062 3.0953045 -0.1442702 0
1.883302 -3.8731899 0.011074968 0
2.726362 3.0953617 -0.13821723 0
2.6200507 3.094224 -0.14048547 0
2.1120014 -3.8726516 0.017299205 0
2.0139301 -3.8725243 0.014636822 0
2.8530145 3.0964627 -0.13554941 0
2.2964048 -3.8722434 0.0089590102 0
3.0592437 3.0968752 -0.13123748 0
2.6294205 -1.4612707 -0.055166006 0
2.6303596 -1.5308986 -0.04926306 0
2.4925106 -3.8716989 -0.034119122 0
3.2583451 3.0972433 -0.12718222 0
2.6920474 -3.8723216 -0.029584318 0
3.4549232 3.0955124 -0.12321323 0
2.888459 -3.8720555 -0.021969974 0
3.6575518 3.0965428 -0.11934246 0
3.0846069 -3.8722134 -0.017322466 0
3.8653786 3.0976095 -0.11550744 0
3.2913833 -3.8720059 -0.0069408789 0
4.0587316 3.096591 -0.11198995 0
3.4943633 -3.8714213 -0.0020179152 0
4.2587404 3.0968566 -0.10853207 0
3.6945529 -3.8710308 0.0094857737 0
4.4588108 3.0986495 -0.1052677 0
3.8959074 -3.8710093 0.015927121 0
4.6610885 3.0978994 -0.10201728 0
4.0922112 -3.8714271 0.019705288 0
4.865315 3.0971398 -0.098885804 0
4.265502 -3.9182096 0.024153523 0
4.2915773 -4.1584625 0.022031128 0
4.291882 -4.3639259 0.019526392 0
4.2913499 -4.568038 0.016917452 0
4.2922044 -4.7580829 0.014549956 0
4.2923765 -4.9526448 0.011969775 0
4.2917724 -5.0812683 0.010352455 0
5.0614281 3.0979891 -0.096082717 0
4.2922239 -5.1600361 0.022675991 0
4.2921906 -5.3340764 0.075995483 0
4.2919674 -5.5448747 0.076694161 0
4.2917833 -5.747457 0.077354312 0
4.2926893 -5.9329948 0.077967919 0
4.2913713 -6.1441855 0.078616977 0
4.2916284 -6.3679881 0.079323374 0
4.2923317 -6.5682049 0.079956003 0
4.2920403 -6.7447762 0.080493443 0
4.2924953 -6.9298511 0.081064656 0
4.2924318 -7.1308722 0.081671081 0
4.2930503 -7.3430848 0.082317375 0
4.2934713 -7.512567 0.082829162 0
5.2635102 3.0974507 -0.093292296 0
4.2941198 -7.6293774 0.083185874 0
4.2931561 -7.7600198 0.083556511 0
4.2937446 -7.9547768 0.084138483 0
4.2929192 -8.1690798 0.084752686 0
4.3537579 -8.3642626 0.086264655 0
5.4634981 3.0987153 -0.090748996 0
4.5267324 -8.3789854 0.088942386 0
5.6287427 3.1002879 -0.088778347 0
4.7323904 -8.3788729 0.091982521 0
5.9157782 3.0978103 -0.085405976 0
4.9249191 -8.3780241 0.094729148 0
6.0705209 3.0989361 -0.083812505 0
5.128602 -8.3787489 0.097536065 0
6.2672873 3.0984545 -0.081834614 0
5.3318844 -8.3775625 0.10022905 0
6.4650025 3.0976629 -0.079974592 0
5.6305637 -8.3748989 0.10399448 0
5.5230751 -8.3777666 0.10266828 0
6.6672606 3.096571 -0.078202933 0
5.7505312 -8.380044 0.10545525 0
5.654778 -8.3823929 0.10431028 0
6.8675203 3.1000934 -0.076754332 0
5.9303918 -8.3773012 0.107552 0
7.0695677 3.098815 -0.075246483 0
6.1353774 -8.3773661 0.10985068 0
7.269104 3.1002407 -0.073982805 0
6.3417158 -8.3778734 0.11206157 0
7.4920559 3.0699854 -0.071564734 0
6.5372128 -8.376379 0.11405223 0
7.5540514 2.7991734 -0.061504096 0
7.5547962 2.5826731 -0.05377458 0
7.554111 2.3802094 -0.046587348 0
7.554759 2.1948209 -0.04003346 0
7.5543728 2.0068293 -0.033428416 0
7.5550489 1.8082296 -0.026490912 0
7.555851 1.5831124 -0.065859288 0
7.5558701 1.3993944 -0.068248302 0
7.5561309 1.2066768 -0.066999659 0
7.5567446 0.9943527 -0.056990594 0
7.5565777 0.7915014 -0.045012429 0
7.5564671 0.59452355 -0.041264117 0
7.5532098 0.46096838 -0.032710649 0
6.734971 -8.3775501 0.11597867 0
7.5567694 0.37507057 -0.029074416 0
7.5558124 0.19552863 -0.027783938 0
7.5571327 -0.0067470074 -0.017333515 0
7.5565653 -0.22267234 -0.0046268255 0
7.5567508 -0.41453695 0.0025069416 0
7.5555773 -0.60078114 0.0074511915 0
7.5567183 -0.8062219 -0.0023697317 0
7.5576758 -1.0086515 -0.015260808 0
7.5571718 -1.2185489 -0.0070958287 0
7.5576143 -1.4198436 -0.010307655 0
7.557476 -1.6134084 0.00041505694 0
7.5573616 -1.8060675 0.0011502132 0
7.5562868 -1.9601877 -0.0025157854 0
6.9346733 -8.3771734 0.11782379 0
7.5583229 -2.0378177 0.014218234 0
7.5576134 -2.2126057 0.011524707 0
7.5572195 -2.4215174 0.044586059 0
7.5580921 -2.6203771 0.051415846 0
7.5581408 -2.8162227 0.048176728 0
7.5572214 -3.010747 0.046582103 0
7.5577297 -3.2173386 0.046288654 0
7.5582943 -3.4180951 0.048019774 0
7.5588164 -3.6263838 0.042443983 0
7.5578823 -3.8196855 0.046379671 0
7.5586634 -4.0179434 0.036215834 0
7.5590067 -4.222558 0.043925993 0
7.5587192 -4.3730292 0.042796873 0
7.1366644 -8.3759403 0.11959125 0
7.5591393 -4.4743309 0.042089686 0
7.5594006 -4.6113882 0.050497182 0
7.5603728 -4.8134327 0.10787274 0
7.5585895 -5.0182395 0.10898522 0
7.5595398 -5.2318354 0.11010259 0
7.5605078 -5.4331617 0.1111129 0
7.560348 -5.63238 0.11207041 0
7.5597692 -5.8282208 0.11297792 0
7.5598941 -6.0211616 0.11384705 0
7.5600653 -6.2286024 0.11475416 0
7.559288 -6.4267998 0.11559186 0
7.5587597 -6.615695 0.11637108 0
7.5593104 -6.7935891 0.11709557 0
7.3422198 -8.3772659 0.12130108 0
7.5597878 -6.9002571 0.11752434 0
7.5584507 -7.035028 0.11804552 0
7.5601616 -7.2421865 0.11885858 0
7.5597711 -7.4259124 0.11955384 0
7.5603476 -7.623086 0.12029427 0
7.5608568 -7.831974 0.12106527 0
7.5599308 -8.0496368 0.12184516 0
7.5592861 -8.2417374 0.12252474 0
7.4970365 -8.3736019 0.12251264 0
-3.9872384 5.0089397 0.029703096 0
-3.8162961 5.0097132 0.029455513 0
-3.6148839 5.0094986 0.029194057 0
-3.9697919 1.8549985 0.067611888 0
-3.9732757 1.7275275 0.06944865 0
-3.9737601 1.5274688 0.072363406 0
-3.9728408 1.3294019 0.075305089 0
-3.973145 1.1340929 0.078274965 0
-3.9742751 0.9236275 0.081548467 0
-3.9722953 0.73191679 0.084582195 0
-3.9740748 0.54295576 0.087651208 0
-3.9733062 0.33797991 0.091038138 0
-3.9739251 0.13502049 0.094470486 0
-3.9727464 -0.066753864 0.097947672 0
-3.9718032 -0.26711965 0.10147397 0
