# .PCD v0.7 - Point Cloud Data file format
VERSION 0.7
FIELDS x y z intensity
SIZE 4 4 4 4
TYPE F F F F
COUNT 1 1 1 1
WIDTH 1420
HEIGHT 1
VIEWPOINT 0 0 0 1 0 0 0
POINTS 1420
DATA ascii
-0.56912667 -8.3724546 0.39299482 0
-0.33803034 -8.3739147 0.39243984 0
-0.14213055 -8.3712044 0.3920351 0
0.038289428 -8.3727493 0.39210802 0
0.23237631 -8.372139 0.39615643 0
0.43707508 -8.3716154 0.39540625 0
0.6957044 -8.3718491 0.39481589 0
0.87744904 -8.3732233 0.39497417 0
0.92113554 -5.7299843 0.2781744 0
0.91026592 -5.532711 0.24038975 0
0.91467488 -5.3440428 0.32164922 0
0.92061138 -5.0013471 0.23538451 0
0.91877556 -4.9633255 0.37746567 0
0.91950786 -4.695611 0.28465083 0
0.9138689 -4.452898 0.31860411 0
0.91862077 -4.0895452 0.33289376 0
7.4274716 -4.1230083 0.39876965 0
0.9494341 -3.8626983 0.31513834 0
1.0859678 -3.8627532 0.32075858 0
1.2991565 -3.8631089 0.3181127 0
1.4652517 -3.8639681 0.33491296 0
1.6880711 -3.8630977 0.33295065 0
1.8831592 -3.8635101 0.33738878 0
2.0897136 -3.8624969 0.3149119 0
2.3274035 -3.8625386 0.30262458 0
2.4840133 -3.8636549 0.30115217 0
2.6599813 -3.8632908 0.31298435 0
2.8516171 -3.8625221 0.31816956 0
3.0813973 -3.8635807 0.31170315 0
3.2949069 -3.8630154 0.27736223 0
3.4076705 -3.8627651 0.28726646 0
7.4283609 -3.9287024 0.38503653 0
7.4296627 -3.70365 0.37657523 0
7.4277668 -3.5229712 0.37414303 0
7.4307919 -3.3255568 0.36825576 0
7.4275312 -3.1087985 0.36382705 0
7.4306598 -2.9051616 0.3552857 0
7.4309239 -2.7147365 0.35798046 0
7.4314532 -2.5029011 0.35062063 0
7.430716 -2.2827754 0.34965241 0
7.4306331 -2.1053956 0.35432714 0
7.4306173 -1.9092228 0.34851399 0
7.429925 -1.7123939 0.33720532 0
-3.916702 -1.4090432 0.31741682 0
-3.7371442 -1.4069872 0.25501025 0
-3.5317008 -1.4070228 0.24797349 0
-3.2977843 -1.4075603 0.29881024 0
-3.092169 -1.4068317 0.27250084 0
-2.8875124 -1.4089329 0.3441008 0
-2.7224209 -1.4074991 0.31152812 0
-2.5217507 -1.4069233 0.28579798 0
-2.3019257 -1.4076188 0.27692151 0
-2.1333387 -1.4070771 0.27157709 0
-1.9260355 -1.4061993 0.29098207 0
-1.7351255 -1.4073901 0.29554966 0
-1.5117178 -1.4067221 0.29798591 0
-1.3048115 -1.4072475 0.29776952 0
-1.0939595 -1.4065615 0.28678763 0
-0.8827731 -1.406134 0.34806299 0
-0.71492648 -1.4049478 0.33202884 0
-0.51804298 -1.4065365 0.30273905 0
-0.30401582 -1.407191 0.29914635 0
-0.086299703 -1.4613689 0.27363726 0
0.11074752 -1.4838085 0.2604073 0
0.27709705 -1.4613184 0.2543385 0
0.46585003 -1.4050733 0.30457869 0
0.68858832 -1.4059166 0.29086211 0
0.9055115 -1.4047089 0.30787364 0
1.1011225 -1.4077622 0.30351833 0
1.2780746 -1.4415385 0.29146051 0
1.4772296 -1.4807222 0.27086028 0
1.6857297 -1.4546734 0.26401299 0
1.8994592 -1.4050859 0.33738184 0
2.0810559 -1.4087558 0.28175572 0
2.265691 -1.4042023 0.33861327 0
2.4396904 -1.4051533 0.34719849 0
7.4315195 -1.504822 0.34288898 0
-4.0882611 -1.3205556 0.27088812 0
-3.9037621 -1.3974546 0.2880654 0
-3.6970553 -1.3966016 0.26205212 0
-3.4708276 -1.3967787 0.2832242 0
-3.3071282 -1.3966095 0.28606018 0
-3.113795 -1.3968847 0.28218666 0
-2.8825777 -1.3963817 0.29242927 0
-2.698375 -1.3970035 0.30323914 0
-2.4914222 -1.3968908 0.29673329 0
-2.2997777 -1.396592 0.30059278 0
-2.1049254 -1.3970481 0.28869084 0
-1.8747232 -1.3972132 0.28176695 0
-1.6968769 -1.3966537 0.28312689 0
-1.515344 -1.3972721 0.28672752 0
-1.2889699 -1.3970121 0.29557875 0
-1.0835326 -1.3965144 0.29067105 0
-0.91854781 -1.3966992 0.29156402 0
-0.69283658 -1.3964541 0.29395589 0
-0.50726008 -1.3970002 0.30328742 0
-0.28607032 -1.3965003 0.26602909 0
-0.057086479 -1.3964753 0.24773331 0
0.078391813 -1.397687 0.24321926 0
0.25058296 -1.3974928 0.24610604 0
0.4993453 -1.3975592 0.25195688 0
0.70447749 -1.3972181 0.26195887 0
0.8952356 -1.3985974 0.33428037 0
1.1105726 -1.397577 0.30184627 0
1.3047595 -1.3975437 0.28780901 0
1.4901642 -1.3964291 0.27070829 0
1.7040048 -1.3970819 0.27591458 0
1.8907179 -1.396553 0.27503899 0
2.1068769 -1.3974477 0.28726608 0
2.3136585 -1.3967795 0.29980528 0
2.4570265 -1.3968866 0.28176215 0
7.4308219 -1.2921932 0.33678877 0
-4.0957441 -1.0817869 0.26199037 0
7.4298024 -1.0861462 0.33133146 0
-4.0966449 -0.90075749 0.26862985 0
7.4309969 -0.91963959 0.3378405 0
-4.096417 -0.70123219 0.26303908 0
7.4306536 -0.72437459 0.34041232 0
-4.096406 -0.48853025 0.26388332 0
7.4314027 -0.49613971 0.3305378 0
-4.0967922 -0.29360002 0.26506358 0
7.4303322 -0.28437513 0.32993636 0
-4.0973368 -0.11474882 0.26758599 0
7.4307079 -0.085796811 0.33319214 0
-4.0970526 0.098776199 0.27281326 0
7.4294806 0.092035182 0.32794029 0
-4.0971236 0.31373248 0.27874842 0
7.4303741 0.29310748 0.33297095 0
-4.0956931 0.52608651 0.26972878 0
7.4309497 0.50381809 0.31883264 0
-4.0969105 0.73241657 0.27433538 0
7.4315996 0.68857509 0.32293576 0
-4.0971894 0.90806872 0.28512928 0
7.4304571 0.8769114 0.31387627 0
-4.0976853 1.1126474 0.26666293 0
7.4302721 1.0961809 0.32236809 0
-4.0974936 1.325634 0.2954959 0
7.4299088 1.2829916 0.30556864 0
-4.096169 1.5198455 0.29501852 0
7.4296889 1.4836876 0.30468005 0
-4.0974293 1.7121172 0.28818074 0
7.4290161 1.7051837 0.31645256 0
-4.0972996 1.857651 0.29403427 0
7.4301362 1.8872371 0.31444451 0
7.430213 2.0832593 0.30604479 0
7.4307165 2.3025985 0.3160159 0
7.4294434 2.4935052 0.33315396 0
7.4306116 2.6995246 0.32078797 0
7.4297647 2.9010589 0.3425231 0
1.5790075 3.1410983 0.31800386 0
1.6813008 3.1048989 0.29104644 0
1.8779221 3.1031911 0.27913141 0
2.116363 3.1027055 0.28042492 0
2.2936063 3.1021249 0.28346458 0
2.4804535 3.1028743 0.29924464 0
2.7193961 3.1022561 0.30939794 0
2.9207456 3.1030903 0.30271128 0
3.1160388 3.1011207 0.29288265 0
3.3038728 3.1024094 0.2772001 0
3.4840343 3.1023123 0.24252915 0
3.693733 3.1023531 0.26218045 0
3.8980889 3.102211 0.27855861 0
4.1021781 3.1024079 0.27540174 0
4.3021526 3.1019776 0.28188151 0
4.4892745 3.1028674 0.29210815 0
4.6822057 3.101511 0.30581725 0
4.8851438 3.1025505 0.27475506 0
5.1003609 3.1021531 0.28816187 0
5.28579 3.1030817 0.27639467 0
5.4942331 3.1033359 0.28540543 0
5.6954656 3.1029267 0.27212897 0
5.8933473 3.1016874 0.30533892 0
6.1085162 3.102582 0.28492033 0
6.2992806 3.1024411 0.3025617 0
6.4853005 3.1022315 0.31443235 0
6.7082281 3.100745 0.31037453 0
6.9120097 3.0998893 0.31821793 0
7.1104012 3.1014032 0.31849581 0
7.3327785 3.0931284 0.32439223 0
7.4269443 3.0410807 0.35584411 0
1.5728569 3.2023742 0.25183761 0
-4.8869309 5.0198693 0.3908028 0
-4.7091012 5.020617 0.38416389 0
-4.5014582 5.0214996 0.37400705 0
-4.3120227 5.0192919 0.36685094 0
-4.0909433 5.0219922 0.35965326 0
-3.8879809 5.022109 0.36309007 0
-3.682924 5.021935 0.35657898 0
-3.4978449 5.0234981 0.34762254 0
-3.2945356 5.0216413 0.35919946 0
-3.0905185 5.0214825 0.34919983 0
-2.8920243 5.0211024 0.34798503 0
-2.7154045 5.0198832 0.35287362 0
-2.5155156 5.0216079 0.33451259 0
-2.3046718 5.0207157 0.33641574 0
-2.1003737 5.0207977 0.32964137 0
-1.8932002 5.0204949 0.31844699 0
-1.6980708 5.0203657 0.32386458 0
-1.4966677 5.021193 0.31628594 0
-1.2939817 5.0189147 0.30834955 0
-1.0931233 5.0198784 0.31353942 0
-0.9045254 5.0213094 0.30632901 0
-0.71083301 5.0214353 0.31557587 0
-0.49633482 5.0228138 0.29890981 0
-0.2873657 5.0208035 0.31549206 0
-0.11037093 5.0371327 0.29061016 0
-0.061822582 5.3142529 0.28389877 0
-0.06285847 5.4881115 0.28423217 0
-0.06106944 5.7171907 0.29771012 0
-0.061688919 5.8669486 0.32708326 0
-0.06149352 6.1176486 0.30180869 0
-0.062197011 6.3075523 0.3487086 0
-0.062071282 6.5159378 0.35886869 0
-0.061018199 6.6683297 0.34319398 0
-0.062721431 6.8692808 0.34653014 0
-15.021898 7.2876139 0.34706134 0
-15.021515 7.4675288 0.35001242 0
-15.018295 7.7130671 0.34763348 0
-15.019273 7.8658834 0.35948583 0
-15.017449 8.1030254 0.33897638 0
-15.019204 8.3103132 0.32259545 0
-15.020077 8.5025129 0.32256761 0
-15.022174 8.6860666 0.32539457 0
-14.975574 8.7782545 0.35864758 0
3.8009458 8.7313404 0.37174845 0
-14.853142 8.8212614 0.28076515 0
-14.689029 8.8275347 0.32865804 0
-14.476448 8.8269806 0.31734636 0
-14.30404 8.827487 0.3148177 0
-14.119612 8.8313589 0.31777927 0
-13.886099 8.8285799 0.33054894 0
-13.675179 8.8284159 0.3295179 0
-13.497179 8.83465 0.31938291 0
-13.322317 8.8254185 0.33657882 0
-13.131394 8.8270273 0.33125988 0
-12.905118 8.8252792 0.33095092 0
-12.684995 8.8223639 0.35494062 0
-12.492543 8.8322077 0.33009723 0
-12.31978 8.8274336 0.33998638 0
-12.104291 8.8298159 0.33134565 0
-11.863011 8.8293161 0.3221958 0
-11.687701 8.822361 0.32455215 0
-11.526921 8.829195 0.31710002 0
-11.276277 8.8257113 0.32054189 0
-11.044934 8.8255405 0.32298836 0
-10.883734 8.8259096 0.31679896 0
-10.710611 8.8269053 0.31410033 0
-10.505454 8.8276129 0.30430517 0
-10.277702 8.8240089 0.314008 0
-10.071358 8.8289709 0.29921353 0
-9.8703747 8.8247118 0.30107638 0
-9.7166004 8.8266239 0.29863101 0
-9.5207796 8.8252621 0.29561409 0
-9.3070135 8.8259201 0.29708338 0
-9.0935259 8.8267593 0.29053208 0
-8.9243937 8.8253326 0.29279244 0
-0.070140786 8.8260231 0.33777261 0
0.071568437 8.8241987 0.33995885 0
0.27222535 8.8247089 0.34340921 0
0.48857778 8.8227863 0.34705019 0
0.71137422 8.8237886 0.35613012 0
0.91487104 8.8264446 0.35499671 0
1.1129054 8.8247747 0.358623 0
1.3097689 8.8232317 0.36958086 0
1.4904537 8.8258162 0.35935986 0
1.7390083 8.8234739 0.38022581 0
1.9133611 8.827137 0.34922227 0
2.1012268 8.8271208 0.35153532 0
2.3893602 8.8255663 0.35512853 0
2.4911361 8.8327312 0.35671556 0
2.6241157 8.8276567 0.35829654 0
2.9215939 8.8280668 0.36236751 0
3.1019683 8.8268156 0.36484721 0
3.2594173 8.8281536 0.36715174 0
3.5335631 8.8274622 0.37114978 0
3.7039332 8.826417 0.37366965 0
-5.6308599 -8.3732109 0.55196685 0
-5.4931412 -8.3745842 0.55039084 0
-5.2995372 -8.3739729 0.54408807 0
-5.0919776 -8.3734093 0.50749767 0
-4.875813 -8.375104 0.50586909 0
-4.6979718 -8.3745041 0.5059588 0
-4.4965754 -8.3730755 0.48982126 0
-4.2567363 -8.3734426 0.4871192 0
-4.0626864 -8.3739061 0.48721668 0
-3.8595109 -8.3742828 0.49573284 0
-3.7318554 -8.3740883 0.47218433 0
-3.5237248 -8.3743877 0.47439966 0
-3.293025 -8.3731308 0.4607887 0
-3.107522 -8.3746033 0.46229124 0
-2.9343824 -8.3720064 0.4525106 0
-2.7552109 -8.3725271 0.44849896 0
-2.5471697 -8.3731699 0.44984597 0
-2.344337 -8.3723478 0.43982306 0
-2.1599805 -8.3730106 0.43624559 0
-1.9348643 -8.3726139 0.43784896 0
-1.7097368 -8.3719778 0.42156065 0
-1.514398 -8.3732309 0.44197527 0
-1.2988681 -8.3740015 0.43093649 0
-1.0814437 -8.3726225 0.43527779 0
-0.87485504 -8.3744831 0.42827678 0
-0.68637782 -8.372716 0.42573979 0
-0.51068538 -8.3724871 0.42831945 0
-0.31827852 -8.3718996 0.41652796 0
-0.16438618 -8.372839 0.41996878 0
0.0086354613 -8.3708439 0.41837761 0
0.25307605 -8.3695717 0.43356213 0
0.48323175 -8.3708067 0.43317628 0
0.69990051 -8.3705444 0.43306017 0
0.8902213 -8.369833 0.43321729 0
0.91891956 -5.6768327 0.5296064 0
0.91555947 -5.2997727 0.5051527 0
0.91878146 -4.9640417 0.52282691 0
0.91870415 -4.6805515 0.48623252 0
0.91382879 -4.4301119 0.50623888 0
0.91842645 -4.1503487 0.49546453 0
7.4283228 -4.0346928 0.41905689 0
0.94590384 -3.8648059 0.5330922 0
1.0868028 -3.8647814 0.53793824 0
1.2961184 -3.8654187 0.53839499 0
1.488265 -3.8649743 0.5211004 0
1.7122637 -3.8652678 0.50671202 0
1.8823799 -3.8641827 0.5054006 0
2.0940628 -3.8644204 0.48327723 0
2.3394561 -3.8642311 0.45924449 0
2.5081384 -3.8634777 0.49243021 0
2.6812141 -3.8648443 0.49549171 0
2.8527019 -3.8648827 0.51275361 0
3.0695243 -3.8642137 0.50758237 0
3.2893715 -3.8650594 0.48383147 0
7.4294086 -3.8893864 0.41842538 0
7.4302192 -3.6671219 0.41760552 0
7.4310937 -3.4731426 0.41711187 0
7.4316826 -3.2376504 0.41675961 0
7.4321661 -3.0388961 0.40920651 0
7.4280548 -2.8812268 0.50949872 0
7.4279785 -2.6755824 0.51695561 0
7.4296608 -2.4283957 0.45959672 0
7.4277387 -2.2697053 0.47866136 0
7.429091 -2.1125405 0.51799297 0
7.430954 -1.926533 0.53728682 0
7.429985 -1.7165874 0.55052984 0
-3.900156 -1.4056592 0.49793643 0
-3.7371144 -1.4050057 0.48456725 0
-3.4817097 -1.4054018 0.45012012 0
-3.2935431 -1.4053322 0.48391709 0
-3.0964706 -1.4047043 0.4448286 0
-2.870857 -1.4053346 0.46914354 0
-2.7337546 -1.4072595 0.49031904 0
-2.5218875 -1.4047126 0.5099389 0
-2.3208799 -1.4051689 0.46547392 0
-2.1156974 -1.4042829 0.45878249 0
-1.9101294 -1.4061365 0.50597399 0
-1.7243892 -1.403915 0.52069861 0
-1.5360304 -1.4045032 0.47583285 0
-1.3004714 -1.4051995 0.46760115 0
-1.1043237 -1.4050953 0.43591169 0
-0.93070382 -1.4040365 0.43503273 0
-0.74554855 -1.4071181 0.42049867 0
-0.5481897 -1.4089867 0.40974066 0
0.55612653 -1.406526 0.40216735 0
0.66441822 -1.4055469 0.41285563 0
0.90693355 -1.4079943 0.44337171 0
1.090849 -1.4079227 0.43902555 0
1.2825927 -1.4071678 0.46703634 0
1.4876049 -1.4062188 0.50105608 0
1.6893291 -1.4063438 0.51442331 0
1.9045547 -1.4036599 0.51728845 0
2.1152761 -1.4032938 0.51440853 0
2.2829828 -1.403983 0.50680143 0
2.4550235 -1.4040632 0.5213818 0
7.4318213 -1.5142751 0.55087459 0
-4.0888047 -1.3203961 0.50090253 0
-3.9405067 -1.397432 0.49379006 0
-3.717397 -1.3973153 0.51221895 0
-3.4671967 -1.3971424 0.51765573 0
-3.2974119 -1.3974674 0.51034653 0
-3.1135056 -1.3973519 0.50283486 0
-2.8740652 -1.3976644 0.49819255 0
-2.6991205 -1.397452 0.48987585 0
-2.5056152 -1.3977044 0.48716527 0
-2.2854373 -1.3979157 0.49751636 0
-2.0669026 -1.3979323 0.5089305 0
-1.8555712 -1.3981169 0.49381295 0
-1.7016103 -1.3975827 0.49276859 0
-1.5051925 -1.3980039 0.49757123 0
-1.2716185 -1.3977091 0.50234735 0
-1.064579 -1.3977454 0.47019744 0
-0.88813889 -1.3973851 0.44623595 0
-0.72891241 -1.3965611 0.42894879 0
-0.53426808 -1.397155 0.40469575 0
1.1859789 -1.3988208 0.42155617 0
1.3028706 -1.3979377 0.4321731 0
1.4590887 -1.3983439 0.42136356 0
1.7452701 -1.398522 0.46781549 0
1.9101428 -1.3981131 0.49032068 0
2.0627389 -1.3985897 0.54170704 0
2.3187916 -1.3966731 0.47058135 0
2.4435341 -1.3978626 0.43745697 0
7.4306068 -1.2903821 0.53721762 0
-4.096354 -1.0885389 0.49852657 0
7.4290066 -1.0882814 0.53697199 0
-4.0964408 -0.91436726 0.48935434 0
7.4305854 -0.91892546 0.54591972 0
-4.0956626 -0.69778991 0.5019806 0
7.4306116 -0.71492153 0.52935332 0
-4.0964818 -0.48656994 0.5039354 0
7.4306679 -0.489057 0.54198653 0
-4.0967383 -0.29095963 0.50307119 0
7.430573 -0.27587736 0.54705393 0
-4.0967546 -0.11462274 0.50152552 0
7.4314165 -0.071421809 0.53843451 0
-4.0959592 0.087718934 0.4940815 0
7.4308128 0.1064838 0.54413545 0
-4.0964327 0.30763206 0.4860982 0
7.4306908 0.30896595 0.54103041 0
-4.0964055 0.51210207 0.48844498 0
7.4308853 0.49497354 0.54940134 0
-4.0976963 0.72963059 0.49996385 0
7.4305038 0.68233734 0.55508274 0
-4.0968838 0.91185731 0.50976849 0
7.4308996 0.89389342 0.53485578 0
-4.0966077 1.1139792 0.48320338 0
7.430789 1.0988731 0.560054 0
-4.0973172 1.3265879 0.49482083 0
7.4313836 1.2806661 0.55345249 0
-4.0965405 1.524022 0.48927706 0
7.4319673 1.4911863 0.49632558 0
-4.0983014 1.710444 0.50421792 0
7.4305878 1.7075874 0.53083742 0
-4.0970445 1.8530312 0.49840808 0
7.4307089 1.9295273 0.50612974 0
7.4309983 2.1043627 0.50900006 0
7.431622 2.2980182 0.53408712 0
7.4305 2.484997 0.51989549 0
7.4314938 2.6948869 0.52966571 0
7.4324431 2.906621 0.50650787 0
1.5791568 3.1486058 0.53525645 0
1.6829928 3.1042912 0.5024246 0
1.8925152 3.1020722 0.47762626 0
2.0987098 3.1008584 0.50001353 0
2.2926018 3.1010878 0.50223881 0
2.4891768 3.1019623 0.50348443 0
2.7000985 3.1010237 0.52262902 0
2.8850372 3.1010144 0.51958817 0
3.0995469 3.1014204 0.52354622 0
3.3023853 3.1011527 0.48179078 0
3.4829195 3.1019003 0.48854622 0
3.6905403 3.1011622 0.50305575 0
3.88552 3.1009731 0.45004123 0
4.1096478 3.1017623 0.48108491 0
4.3132782 3.1009345 0.46246886 0
4.50563 3.102649 0.48682716 0
4.6848979 3.1010299 0.50082815 0
4.8865161 3.1009033 0.47471449 0
5.0887103 3.1016819 0.48202252 0
5.2904053 3.1001532 0.47530749 0
5.5005517 3.1009641 0.49258414 0
5.6950159 3.1011751 0.49501064 0
5.8897238 3.1002154 0.53266448 0
6.1053233 3.1005151 0.52260154 0
6.3000593 3.1007333 0.53648925 0
6.4844961 3.099968 0.55205351 0
6.6931076 3.0997565 0.54130769 0
6.8774424 3.1013989 0.51725197 0
7.0973473 3.1015661 0.51974016 0
7.321414 3.0983377 0.51310295 0
7.4298892 3.0258074 0.43577445 0
1.5712702 3.2020342 0.48941535 0
-4.9165511 5.0193601 0.43054938 0
-4.6753507 5.0200133 0.43315491 0
-4.484786 5.0211773 0.42558792 0
-4.3143125 5.0192409 0.42263007 0
-4.1203017 5.017643 0.45109224 0
-3.9077432 5.0205569 0.45851824 0
-3.7076452 5.0180984 0.49584469 0
-3.5123332 5.0201116 0.51834297 0
-3.3045487 5.0200682 0.53064054 0
-3.0990403 5.0219316 0.56254745 0
-2.871212 5.0211945 0.55912161 0
-2.6885381 5.0206542 0.57170498 0
-2.5094802 5.020257 0.55543011 0
-2.2980497 5.0197449 0.54750389 0
-2.1011581 5.0212221 0.54445016 0
-1.8928127 5.019269 0.5249992 0
-1.6995242 5.0201578 0.52975041 0
-1.4973063 5.020113 0.51896286 0
-1.30406 5.0188169 0.50864393 0
-1.1005865 5.0193939 0.51452392 0
-0.89654827 5.0191727 0.50482482 0
-0.69826627 5.0207205 0.50727206 0
-0.49043006 5.021131 0.50104219 0
-0.28745398 5.0199966 0.50914913 0
-0.11137512 5.0462956 0.49909222 0
-0.061850689 5.2781539 0.51008677 0
-0.062154226 5.4958835 0.50289828 0
-0.060642824 5.7333798 0.52355194 0
-0.060686607 5.8831573 0.5664643 0
-0.061943363 6.1164198 0.52342701 0
-0.060007274 6.3290973 0.57768458 0
-0.060213745 6.5715737 0.59722936 0
-0.062180009 6.6758132 0.53002828 0
-15.018016 7.5941486 0.41876665 0
-15.018497 7.8314109 0.42117828 0
3.7983572 7.9246931 0.43204612 0
-15.018174 8.0714865 0.42374337 0
3.7984672 8.0690374 0.43881249 0
-15.020736 8.3162241 0.42655048 0
3.7977521 8.2539978 0.44750306 0
-15.019461 8.526907 0.42900944 0
3.7990539 8.4899302 0.45867077 0
-14.963685 8.7792416 0.43097141 0
3.7978606 8.689703 0.4681325 0
-14.701031 8.818243 0.42614475 0
-14.295305 8.8169327 0.41801959 0
-14.048162 8.819664 0.41318485 0
-13.882298 8.8186054 0.40993074 0
-13.696995 8.8201189 0.40636849 0
-0.21760798 8.8264036 0.49031883 0
-0.071885943 8.8256397 0.46689504 0
0.10705789 8.8258505 0.46142796 0
0.31560764 8.8259449 0.46594694 0
0.5545646 8.8246861 0.46449056 0
0.72833633 8.8251247 0.46252894 0
0.90889597 8.8254356 0.46710914 0
1.1201715 8.8259602 0.46090165 0
1.331279 8.8262224 0.46474019 0
1.5140986 8.8267355 0.4610382 0
1.7167381 8.8246908 0.46387339 0
1.8992536 8.8256674 0.45867643 0
2.1117125 8.8257332 0.45604435 0
2.3211558 8.8238697 0.45456472 0
2.5026286 8.8249407 0.45151663 0
2.6854076 8.8224068 0.44960999 0
2.8970346 8.8193016 0.44998768 0
3.1182899 8.8202181 0.45923436 0
3.3242626 8.8210554 0.4609068 0
3.5166631 8.8219671 0.46685702 0
3.6765194 8.817193 0.47113138 0
-4.8257127 -8.3793173 0.79195368 0
-4.6158843 -8.3748922 0.78204745 0
-4.4158745 -8.3765116 0.77326185 0
-4.2592592 -8.3778114 0.76655442 0
-4.0856867 -8.3769608 0.75917089 0
-3.8034678 -8.3757734 0.74755228 0
-3.6203506 -8.3767576 0.77671641 0
-3.4723129 -8.3743267 0.78666955 0
-3.2947445 -8.37502 0.76215869 0
-3.0928948 -8.3756962 0.7517966 0
-2.919667 -8.3746777 0.74742347 0
-2.7562606 -8.3735495 0.74111772 0
-2.5353172 -8.3734789 0.73907131 0
-2.3455551 -8.3740273 0.72657156 0
-2.161217 -8.3747978 0.72054142 0
-1.935231 -8.3731613 0.71885031 0
-1.7115123 -8.3747501 0.70081323 0
-1.5112888 -8.3739834 0.70746589 0
-1.3163881 -8.3741522 0.6971761 0
-1.1037703 -8.3734112 0.69788563 0
-0.91183275 -8.3742266 0.68824267 0
-0.7269823 -8.3739023 0.68413424 0
-0.50555426 -8.373579 0.68715054 0
-0.30739006 -8.3740425 0.67851621 0
-0.15289129 -8.3726883 0.67233324 0
0.017995358 -8.3742828 0.67522854 0
0.23886926 -8.3739233 0.67348343 0
0.45982212 -8.3741932 0.67864609 0
0.69611073 -8.3737926 0.66846299 0
0.87146091 -8.3736143 0.67799217 0
0.91851735 -5.6684284 0.78548056 0
0.91398215 -5.2808757 0.70835733 0
0.9184199 -4.9573483 0.74238092 0
0.91842663 -4.6758161 0.69090247 0
0.91815317 -4.4254427 0.70963234 0
0.9091661 -4.3428311 0.73259091 0
0.91765654 -4.1059361 0.70481497 0
7.4295545 -4.0744653 0.70270514 0
0.94674706 -3.8661587 0.72190803 0
1.0919898 -3.866117 0.72150081 0
1.2985808 -3.8658066 0.70103949 0
1.4996823 -3.866581 0.68426925 0
1.7181606 -3.8664181 0.66297817 0
1.8818092 -3.8658888 0.6823265 0
2.0934556 -3.8660748 0.69400311 0
2.3442359 -3.8666339 0.71508563 0
2.4850304 -3.86712 0.71501523 0
2.6562459 -3.8660874 0.70399773 0
2.8587425 -3.8666656 0.70631474 0
3.0686212 -3.8655424 0.70615834 0
3.2533236 -3.8671172 0.68007362 0
7.4316921 -3.9189065 0.68474889 0
7.4286356 -3.7036607 0.67117357 0
7.4307389 -3.5058341 0.67171603 0
7.4295912 -3.3019149 0.65410864 0
7.4295669 -3.0974424 0.64651763 0
7.4301701 -2.8798103 0.65791488 0
7.4302435 -2.6942387 0.65292484 0
7.430665 -2.4939144 0.66264039 0
7.4310503 -2.2860565 0.63474292 0
7.430079 -2.1258712 0.646896 0
7.4307318 -1.914396 0.67561114 0
7.4286604 -1.6987028 0.6892277 0
-3.9004452 -1.4044615 0.67454606 0
-3.7040646 -1.4047244 0.69980991 0
-3.5037036 -1.4050486 0.66152489 0
-3.3153024 -1.4044523 0.68676162 0
-3.1031342 -1.4043026 0.67807734 0
-2.8996394 -1.4055141 0.69712335 0
-2.6910195 -1.4050164 0.69127971 0
-2.5203774 -1.406316 0.70737749 0
-2.3081081 -1.4044269 0.681238 0
-2.1196299 -1.4047136 0.64404249 0
-1.9133505 -1.4058204 0.6361748 0
-1.7774856 -1.4045947 0.62581325 0
1.8924627 -1.4094335 0.61988372 0
2.1024256 -1.4083555 0.65545696 0
2.3016808 -1.4040893 0.65550345 0
2.4351013 -1.4029982 0.68148875 0
7.4290023 -1.5082958 0.66824031 0
-4.0833192 -1.3163257 0.71349925 0
-3.9569476 -1.398918 0.72133744 0
-3.7289803 -1.398646 0.71570963 0
-3.47767 -1.3988506 0.68119472 0
-3.2528744 -1.3987709 0.6964916 0
-3.0645363 -1.3986826 0.69863981 0
-2.8859704 -1.3989226 0.68392539 0
-2.6693535 -1.3988651 0.70082486 0
-2.4816568 -1.3985888 0.70137137 0
-2.2818716 -1.3988037 0.69885349 0
-2.0806408 -1.3984979 0.70703602 0
-1.8857827 -1.3983736 0.68774629 0
-1.6805413 -1.3978965 0.65080327 0
-1.4782082 -1.3978082 0.63414943 0
2.124114 -1.3981203 0.61973792 0
2.3307066 -1.3984048 0.66280663 0
2.46312 -1.3997828 0.63587642 0
7.43015 -1.2988005 0.67052305 0
-4.0970359 -1.1023512 0.71197045 0
7.4291821 -1.1027586 0.66566885 0
-4.0973821 -0.92105669 0.70090246 0
7.4301057 -0.91033936 0.66525364 0
-4.0980687 -0.70638192 0.69658226 0
7.4296989 -0.70748776 0.66005737 0
-4.0975609 -0.49529341 0.71472055 0
7.4291472 -0.47576046 0.68436724 0
-4.0984011 -0.29009044 0.71057093 0
7.4293242 -0.27169663 0.66739476 0
-4.0990224 -0.10804749 0.69840568 0
7.4293175 -0.064047463 0.66937256 0
-4.0972652 0.097580649 0.70539206 0
7.4284387 0.13385311 0.69010693 0
-4.096941 0.31749219 0.68739516 0
7.427887 0.33490735 0.67449337 0
-4.0965791 0.51766294 0.70065534 0
7.4285526 0.51024944 0.67741364 0
-4.0980573 0.71871066 0.66188014 0
7.4305639 0.68236691 0.66925251 0
-4.0973263 0.90302551 0.67757553 0
7.4293985 0.87977266 0.69319308 0
-4.0961528 1.1059753 0.69570452 0
7.4296942 1.0951784 0.71001971 0
-4.0972624 1.3212515 0.68439633 0
7.4292135 1.2826726 0.69548392 0
-4.0961504 1.523127 0.68835962 0
7.4314189 1.4998213 0.65730637 0
-4.0980439 1.7146885 0.71810645 0
7.4304762 1.7204494 0.64651167 0
-4.0976801 1.8584834 0.69431859 0
7.4295254 1.8751161 0.64988375 0
7.4308252 2.0844429 0.67459458 0
7.4302549 2.2801178 0.6637966 0
7.4299703 2.487828 0.65993804 0
7.4314065 2.6714592 0.6690895 0
7.4294686 2.8854024 0.64013469 0
1.5790023 3.1464782 0.73015583 0
1.6780859 3.103389 0.71237159 0
1.8824747 3.1000872 0.69528776 0
2.108674 3.0998576 0.68053734 0
2.3019886 3.1000676 0.68940151 0
2.4871337 3.1005361 0.68051362 0
2.7095635 3.0999608 0.6799131 0
2.9006567 3.1003914 0.67583793 0
3.093318 3.0995631 0.69753361 0
3.290422 3.100625 0.70413417 0
3.4867494 3.0999656 0.72681618 0
3.6930809 3.0993242 0.7242474 0
3.906534 3.1002212 0.68839836 0
4.0883474 3.1017523 0.68573761 0
4.2984524 3.0995157 0.67074376 0
4.4872928 3.1009395 0.67845893 0
4.6813922 3.1005931 0.69670045 0
4.8834629 3.1005316 0.67570955 0
5.0935688 3.1010411 0.67906719 0
5.2930832 3.1003919 0.68797082 0
5.502532 3.0999434 0.71101099 0
5.7176042 3.0990486 0.72563231 0
5.9089184 3.099798 0.75096399 0
6.1172943 3.1010506 0.73916364 0
6.274735 3.1012928 0.72391826 0
6.4723511 3.1020432 0.72259963 0
6.6951127 3.1017416 0.71196181 0
6.8874326 3.1002703 0.67257023 0
7.0594292 3.1009076 0.68659741 0
7.3209839 3.0902958 0.64208966 0
7.4313889 3.0225868 0.66218758 0
1.5748279 3.20683 0.68227065 0
-4.9148026 5.0172744 0.68244404 0
-4.7016158 5.0184956 0.66330993 0
-4.4951344 5.0204678 0.66039014 0
-4.315567 5.0173631 0.65401679 0
-4.107285 5.0213952 0.6388461 0
-3.8996167 5.0200853 0.65442193 0
-3.6864083 5.0188565 0.65670365 0
-3.5181234 5.0174026 0.65121812 0
-3.3043089 5.0191593 0.67355657 0
-3.0768051 5.0180998 0.67043185 0
-2.8712642 5.0181556 0.69556749 0
-2.6697891 5.0156302 0.76500446 0
-2.4988809 5.0190873 0.75643009 0
-2.2948823 5.016922 0.75343406 0
-2.0969543 5.0180149 0.7525425 0
-1.9053156 5.0191784 0.74165922 0
-1.6979746 5.01789 0.73660666 0
-1.5003207 5.0187554 0.72294939 0
-1.3032734 5.0183678 0.70986867 0
-1.100747 5.0199127 0.72574925 0
-0.89428359 5.0186796 0.70909435 0
-0.69651735 5.0189137 0.71503186 0
-0.49281803 5.0199838 0.70654237 0
-0.28531516 5.0190144 0.71517301 0
-0.10350814 5.0696893 0.70542866 0
-0.060368896 5.2659535 0.73305494 0
-0.063062496 5.4868345 0.73481041 0
-0.063009277 5.6712484 0.73597813 0
-0.060989887 5.8777027 0.76408648 0
-0.064027049 6.0899429 0.65064186 0
-0.061665665 6.2803159 0.6738922 0
-0.062589563 6.4987583 0.66524535 0
-0.063162938 6.7153282 0.67762685 0
-0.061122973 6.8728976 0.64949417 0
3.7987125 7.9214087 0.73995781 0
3.7985928 8.0651283 0.75124228 0
3.7983613 8.2699642 0.76738918 0
3.798804 8.4847775 0.78441626 0
3.7993734 8.7939196 0.71142071 0
3.8017898 8.6680183 0.70291603 0
-13.316766 8.8194609 0.79719108 0
-13.081597 8.8219528 0.78872955 0
-12.861789 8.8192387 0.79730159 0
-12.755566 8.8214931 0.7847994 0
-12.592944 8.8211317 0.77114284 0
-12.319849 8.8200569 0.76140773 0
-12.105895 8.8225574 0.75393599 0
-11.913877 8.8204384 0.74714297 0
-11.70426 8.8205805 0.74447989 0
-11.517125 8.820056 0.73881477 0
-11.286047 8.8222752 0.72866994 0
-11.112501 8.821888 0.72235572 0
-10.922661 8.8231144 0.74942529 0
-10.685006 8.8258181 0.74667579 0
-10.477131 8.8231792 0.73103011 0
-10.279975 8.8235941 0.74354106 0
-10.09079 8.8253365 0.74951595 0
-9.8779726 8.8240128 0.73952216 0
-9.6890001 8.8242464 0.73993671 0
-9.4908485 8.8243275 0.7048595 0
-9.3111706 8.8230419 0.7454623 0
-9.1044941 8.8243799 0.72723103 0
-8.9400206 8.8223429 0.70911127 0
-0.079382166 8.8236132 0.72679061 0
0.10642119 8.8243647 0.72257721 0
0.30241629 8.8224688 0.72681999 0
0.51904142 8.8239737 0.7287733 0
0.70307469 8.823102 0.73742503 0
0.89361364 8.8232327 0.71455115 0
1.110976 8.8228664 0.74622071 0
1.3234856 8.8236942 0.72078848 0
1.5092102 8.8241234 0.74105132 0
1.7287318 8.822794 0.74468976 0
1.9185886 8.8232689 0.73358798 0
2.1174529 8.8235388 0.75998801 0
2.3286178 8.8231726 0.75277203 0
2.4956517 8.8230333 0.76656622 0
2.6917257 8.8207521 0.76283008 0
2.9204583 8.8228703 0.74733573 0
3.1110039 8.8229656 0.77317256 0
3.3022385 8.8226194 0.76992142 0
3.4701252 8.8262291 0.70449728 0
3.6855028 8.8262959 0.71041954 0
-5.4816227 -8.3739834 0.89336228 0
-5.3016624 -8.3769951 0.88425201 0
-5.0873466 -8.3764753 0.84365398 0
-4.8934507 -8.3749065 0.85988539 0
-4.6799812 -8.3748436 0.8481971 0
-4.4705696 -8.3757286 0.83687133 0
-4.2782774 -8.3745518 0.82686418 0
-4.0827088 -8.374465 0.81718427 0
-3.8594539 -8.3742132 0.80581367 0
-3.7423882 -8.3744621 0.80232114 0
-2.5875952 -8.3771152 0.9985429 0
-2.3107827 -8.3777514 0.98656559 0
-2.1147625 -8.3731451 0.97799724 0
-1.9122939 -8.3777161 0.98538625 0
-1.7007995 -8.3768549 0.97240108 0
-1.4991647 -8.3766193 0.9691211 0
-1.3200297 -8.3748379 0.97360688 0
-1.1084008 -8.3762875 0.9724431 0
-0.90755367 -8.3740606 0.96076989 0
-0.72388673 -8.3761272 0.95551133 0
-0.50614357 -8.3749876 0.95695972 0
-0.30790561 -8.3757124 0.94736934 0
-0.14843315 -8.3761005 0.94067937 0
0.017546555 -8.3761024 0.94258875 0
0.23847334 -8.3763475 0.94017696 0
0.45955649 -8.375906 0.94474351 0
0.69874191 -8.3766403 0.93444711 0
0.88861108 -8.3759069 0.94371367 0
0.91811335 -5.6594868 0.95737964 0
0.91405272 -5.2577624 0.8632381 0
0.90842932 -5.0857129 0.97005188 0
0.91657555 -4.9194474 0.95754737 0
0.91689354 -4.6464739 0.89277893 0
0.91688555 -4.4027348 0.90101004 0
0.90900385 -4.2738991 0.90758115 0
0.91678631 -4.0916061 0.88166773 0
7.4260178 -4.1197634 0.99573982 0
0.94274557 -3.8670292 0.81426799 0
1.0834675 -3.8651314 0.81914848 0
1.2957093 -3.8671596 0.81778097 0
1.4682899 -3.866951 0.82207012 0
1.6865605 -3.8677073 0.84477377 0
1.8879105 -3.8682425 0.85608649 0
2.0934551 -3.8675385 0.87675583 0
2.3357639 -3.8684704 0.90156174 0
2.5131502 -3.8672662 0.89559233 0
2.6881866 -3.8674977 0.88808888 0
2.8479621 -3.8686478 0.90050727 0
3.0972414 -3.8693621 0.92577964 0
3.2124143 -3.8693223 0.88430184 0
7.4316087 -3.9206588 0.97489411 0
7.4300613 -3.7052951 0.95591998 0
7.4289494 -3.4874506 0.95388699 0
7.4300056 -3.2931957 0.93164176 0
7.4294205 -3.0934238 0.91619635 0
7.4310622 -2.901865 0.88971049 0
7.4305549 -2.6983299 0.89507771 0
7.4319239 -2.4921634 0.88470602 0
7.4302502 -2.2949722 0.87918389 0
7.4307761 -2.1178434 0.87416875 0
7.4318228 -1.9132028 0.87765574 0
7.4302859 -1.7203125 0.88724196 0
-4.0431862 -1.4009595 0.9320159 0
-3.8977053 -1.4044604 0.90622139 0
-3.7108493 -1.4038162 0.8991372 0
-3.4845552 -1.4058864 0.89119273 0
-3.2935131 -1.4052658 0.89407623 0
-3.0940704 -1.4056422 0.86417103 0
-2.8576505 -1.404748 0.88339418 0
-2.7167006 -1.4055183 0.84331089 0
-2.4858131 -1.4019848 0.83746564 0
7.4306302 -1.5167234 0.87218451 0
-4.0919843 -1.3159828 0.90901947 0
-3.7533798 -1.3998344 0.86938506 0
-3.4887261 -1.3996823 0.89268136 0
-3.2896578 -1.3996128 0.9268195 0
-3.0395474 -1.3995838 0.91126865 0
-2.8519316 -1.3996425 0.91902483 0
-2.6776576 -1.3989911 0.89569181 0
-2.4847922 -1.3988047 0.88877952 0
-2.3081355 -1.3987501 0.85292262 0
-2.1409841 -1.3991979 0.81950474 0
7.4302874 -1.2881563 0.87771809 0
-4.0976186 -1.0790198 0.91642523 0
7.4306827 -1.0958526 0.87684411 0
-4.0968003 -0.91479778 0.8930788 0
7.4306421 -0.91602308 0.86824399 0
-4.0971265 -0.70199329 0.89408785 0
7.4301825 -0.71448976 0.87375486 0
-4.0966868 -0.48583573 0.90792525 0
7.4307728 -0.49031946 0.8805657 0
-4.0972967 -0.29375699 0.89105368 0
7.4292855 -0.27805984 0.86235166 0
-4.0971551 -0.11125685 0.90172291 0
7.4295793 -0.086531982 0.87461036 0
-4.0972629 0.10095792 0.91233593 0
7.4307652 0.083839938 0.87234497 0
-4.0975528 0.30503333 0.91716814 0
7.4296012 0.29086828 0.85424602 0
-4.0977449 0.50322098 0.92623365 0
7.43086 0.50858665 0.87043875 0
-4.0971699 0.70791072 0.90091014 0
7.4307456 0.70184284 0.83486044 0
-4.0977759 0.90150034 0.88135004 0
7.4309673 0.88572329 0.88128054 0
-4.0977063 1.1276054 0.87461692 0
7.4304776 1.0947515 0.86451566 0
-4.0975971 1.3228077 0.88075137 0
7.429862 1.2665715 0.87560683 0
-4.0977302 1.5209895 0.89340454 0
7.430294 1.4644264 0.8472206 0
-4.0979671 1.7188568 0.90016162 0
7.4302201 1.7018688 0.85003483 0
-4.0990443 1.8490835 0.90495259 0
7.4298072 1.906351 0.86059135 0
7.4307671 2.0924923 0.86760968 0
7.4295311 2.2966738 0.86330181 0
7.4291363 2.4890404 0.89063358 0
7.4294567 2.7024548 0.87560958 0
7.4296298 2.889565 0.89103532 0
1.584866 3.1190691 0.90958822 0
1.685963 3.1084154 0.92143321 0
1.8740112 3.0984197 0.91381907 0
2.0968957 3.0989621 0.89823496 0
2.2868533 3.0991104 0.90657783 0
2.4880967 3.0994196 0.88058954 0
2.6973839 3.0992 0.89154005 0
2.8829899 3.0994 0.88947833 0
3.088897 3.0995121 0.86662942 0
3.3008389 3.0993855 0.89326978 0
3.4853547 3.1001 0.90483153 0
3.69733 3.0993044 0.914496 0
3.8855782 3.0982754 0.90623313 0
4.0898256 3.0990279 0.89344269 0
4.3211927 3.0987692 0.8825087 0
4.5075641 3.1003628 0.88503391 0
4.6901999 3.0994105 0.88776153 0
4.8657384 3.0989969 0.88009083 0
5.0930386 3.0995529 0.87538975 0
5.3036938 3.0986111 0.90563208 0
5.5068254 3.099041 0.93310326 0
5.6914768 3.0991213 0.94571042 0
5.8848481 3.0997622 0.92677742 0
6.1075287 3.099158 0.90562528 0
6.2835855 3.1002312 0.87944812 0
6.4937387 3.1001554 0.87395447 0
6.6999106 3.0979295 0.85157156 0
6.8870635 3.0978575 0.86425143 0
7.1000404 3.0982037 0.87686664 0
7.3174834 3.0883882 0.88971305 0
7.4262466 3.0361524 0.91196787 0
1.5722055 3.2077341 0.95889801 0
-4.9086041 5.0174527 0.94066817 0
-4.6880112 5.0175552 0.93457568 0
-4.4921317 5.0190473 0.92514557 0
-4.3063374 5.0163202 0.9091658 0
-4.0963144 5.0179358 0.88606656 0
-3.8899703 5.0182123 0.88074511 0
-3.697993 5.0191183 0.86980927 0
-3.498225 5.0189195 0.862055 0
-3.3151863 5.0185781 0.86882454 0
-3.0924997 5.0184879 0.86393893 0
-2.8901486 5.0163732 0.88032329 0
-2.7204468 5.0173249 0.83827716 0
-2.5220215 5.0166821 0.88256907 0
-2.2906446 5.0180187 0.90746433 0
-2.0915773 5.0176244 0.93000084 0
-1.8798251 5.0173817 0.92862785 0
-1.670083 5.0161672 0.91770607 0
-1.4889702 5.0176811 0.93793088 0
-1.2977976 5.0167007 0.91242492 0
-1.1014832 5.017097 0.92407447 0
-0.89276171 5.0165677 0.91765499 0
-0.69530135 5.0153608 0.90118808 0
-0.49224228 5.0184584 0.91379654 0
-0.29348165 5.0183949 0.92325318 0
-0.1079919 5.0556989 0.92138988 0
-0.061042048 5.2706223 0.94138634 0
-0.063209668 5.503129 0.9403553 0
-0.066692099 5.7627482 0.91045558 0
-0.062738001 5.9314218 0.87911904 0
-0.062221829 6.0777297 0.84401155 0
-0.061043244 6.2990432 0.85569543 0
-0.062547892 6.4965477 0.90188634 0
-0.062684759 6.6972733 0.91310483 0
-0.060884696 6.8707376 0.92377883 0
-15.023514 7.2823944 0.93405962 0
-15.021144 7.4613004 0.93965387 0
-15.01762 7.6824431 0.95357752 0
-15.021743 7.8641381 0.95938331 0
-15.018048 8.0856771 0.94311255 0
-15.018639 8.3043728 0.9415369 0
-15.019325 8.4938354 0.92597181 0
-15.020885 8.6898413 0.87257278 0
-14.972095 8.7702198 0.97586644 0
3.7979198 8.6850548 0.80031675 0
-14.845634 8.8180017 0.91128588 0
-14.693143 8.8228168 0.92908925 0
-14.503891 8.8219957 0.92088187 0
-14.301147 8.8223324 0.91676968 0
-14.119824 8.8236723 0.91836423 0
-13.907001 8.8234615 0.92379016 0
-13.701779 8.8218737 0.91945565 0
-13.506986 8.8244562 0.8865906 0
-13.312873 8.8240576 0.91692495 0
-13.117375 8.822403 0.88905758 0
-12.906636 8.8225317 0.90825158 0
-12.686292 8.818717 0.9095481 0
-12.523393 8.8252087 0.8847301 0
-12.334068 8.8222551 0.88314909 0
-12.104158 8.8251305 0.87401962 0
-11.871309 8.8263607 0.85256797 0
-11.69446 8.8250341 0.84796536 0
-11.501969 8.8254519 0.84049398 0
-11.266826 8.8231649 0.84047979 0
-11.053079 8.8206902 0.83588326 0
-10.875893 8.8220034 0.8380273 0
-10.687923 8.8202667 0.83536834 0
-10.514248 8.8282318 0.8148796 0
-10.295085 8.8210545 0.81962013 0
-10.10013 8.8175049 0.82543701 0
-9.9017668 8.8172493 0.81733418 0
-9.7073269 8.8161564 0.80947959 0
-0.2176463 8.8253536 0.83213067 0
-0.063562475 8.8226271 0.90040648 0
0.11974902 8.8243523 0.91280305 0
0.30828997 8.8242302 0.90363288 0
0.53389144 8.823801 0.9036417 0
0.72245282 8.8243198 0.87325025 0
0.90293962 8.823514 0.87445062 0
1.1120024 8.8249617 0.87605405 0
1.3179562 8.8240299 0.88472855 0
1.5263473 8.8241835 0.88003421 0
1.7321457 8.8244152 0.88256502 0
1.9001344 8.8246021 0.89172286 0
2.112155 8.8243227 0.91466922 0
2.3159618 8.8244419 0.83703178 0
2.4762383 8.8212843 0.81781775 0
3.3309374 8.8223877 0.80282503 0
3.5153129 8.8213186 0.80484557 0
3.6737659 8.8203049 0.80863023 0
-5.0141726 -8.3772507 1.1691262 0
-4.8718567 -8.3764534 1.1708933 0
-4.6689696 -8.3764992 1.1640062 0
-4.4551792 -8.3769302 1.1409245 0
-4.2541089 -8.3766613 1.1269604 0
-4.0957613 -8.3762131 1.1343954 0
-3.880075 -8.3764496 1.0929775 0
-3.6524682 -8.3774643 1.0922596 0
-3.4784052 -8.3759441 1.0926653 0
-3.3024576 -8.3776665 1.0660454 0
-3.1185918 -8.3753452 1.0475364 0
-2.9400439 -8.376894 1.0505726 0
-2.7583084 -8.3765821 1.035953 0
-2.5420539 -8.375164 1.0409135 0
-2.3332698 -8.3749647 1.028272 0
-2.1469226 -8.376585 1.0194016 0
-1.9430736 -8.3761492 1.0127715 0
-1.7347586 -8.3755703 1.0099357 0
-1.5181303 -8.3748131 1.0020094 0
-0.13515925 -8.3763533 1.1985507 0
0.072174102 -8.3765011 1.1957384 0
0.29043889 -8.3817301 1.1965828 0
0.44270468 -8.3778782 1.1945609 0
0.69326669 -8.3792744 1.193316 0
0.8820765 -8.3800974 1.1922485 0
0.91631055 -5.6160083 1.1228673 0
0.9164961 -5.2416496 1.1156148 0
0.90890527 -5.0573111 1.1191028 0
0.91639483 -4.9162664 1.1079342 0
0.91655815 -4.6403766 1.0322213 0
7.4307737 -4.0337229 1.0004874 0
2.9488831 -3.865799 1.0157506 0
3.1254714 -3.8690116 1.0215573 0
7.4319773 -3.4876447 1.1968629 0
7.4276543 -3.3351524 1.188484 0
7.429522 -3.1089554 1.1658108 0
7.4288888 -2.8886464 1.1152159 0
7.4295263 -2.6912844 1.1055049 0
7.4300342 -2.4855955 1.1141634 0
7.4291363 -2.2790852 1.1134197 0
7.4293771 -2.1045096 1.0985607 0
7.4310727 -1.9212092 1.0919595 0
7.4294233 -1.703254 1.0986032 0
-4.0034323 -1.4000533 1.143748 0
-3.8893056 -1.406646 1.0981505 0
-3.7008235 -1.4063783 1.0626582 0
-3.5135767 -1.4031595 1.0916774 0
-3.2838268 -1.4027497 1.0870966 0
-3.0368531 -1.4005008 1.0571457 0
7.4309745 -1.4868909 1.0931504 0
-4.0870967 -1.3174537 1.0980891 0
-3.8516607 -1.3999035 1.1080041 0
-3.7102838 -1.3999145 1.0747253 0
-3.4634261 -1.3999904 1.1242756 0
-3.295022 -1.3995147 1.0796112 0
-3.0921862 -1.3993456 1.0258738 0
-2.9142537 -1.399688 1.0288925 0
7.4293189 -1.277162 1.093622 0
-4.0971861 -1.0801321 1.1038277 0
7.4310341 -1.0858155 1.0896637 0
-4.0979877 -0.91437173 1.1119432 0
7.4310436 -0.9185223 1.0822743 0
-4.0968337 -0.69928491 1.1067729 0
7.4299622 -0.72538203 1.0826498 0
-4.0973163 -0.48373318 1.118238 0
7.4307313 -0.49974144 1.0786883 0
-4.0971828 -0.30150571 1.1137477 0
7.429913 -0.28252754 1.080851 0
-4.0986733 -0.12305605 1.1126685 0
7.4300604 -0.088181332 1.0825827 0
-4.0967455 0.097948566 1.1275909 0
7.4294071 0.099943936 1.0700622 0
-4.0970402 0.30943096 1.1184522 0
7.4296927 0.30795762 1.0728034 0
-4.0965776 0.52565169 1.1335053 0
7.4305029 0.51169074 1.0753337 0
-4.0977297 0.72949082 1.1083049 0
7.4297924 0.69770223 1.0810132 0
-4.098259 0.92049354 1.0803691 0
7.4289484 0.87748855 1.0862007 0
-4.097239 1.1159273 1.0778596 0
7.4308143 1.1037971 1.0859133 0
-4.0972834 1.3285584 1.0954667 0
7.4296937 1.2765844 1.0915817 0
-4.0972366 1.5319414 1.0817558 0
7.4300356 1.4797755 1.0896763 0
-4.0976768 1.7294374 1.0898095 0
7.4307723 1.6986916 1.1001445 0
-4.0994391 1.8734545 1.1081744 0
7.4295645 1.9037421 1.1088121 0
7.4298825 2.0874126 1.1123567 0
7.4285564 2.2926309 1.1288598 0
7.4291296 2.4812262 1.1470402 0
7.4299736 2.697681 1.1381596 0
7.4297938 2.9157288 1.1436707 0
1.5997652 3.0968664 1.0709726 0
1.6641762 3.1050916 1.0617449 0
1.87693 3.0990999 1.0451577 0
2.0803952 3.0993199 1.0689244 0
2.289645 3.0977859 1.0889764 0
2.5068371 3.0980287 1.0921719 0
2.701339 3.0973289 1.1020657 0
2.8840475 3.0977979 1.1109968 0
3.0955901 3.0983763 1.1044054 0
3.3104377 3.0968702 1.0899041 0
3.5042849 3.0986698 1.0944922 0
3.694607 3.0983257 1.1100258 0
3.8809612 3.0976715 1.1116098 0
4.0951209 3.0977495 1.0967317 0
4.324295 3.0978227 1.1164037 0
4.5084224 3.0985277 1.0711474 0
4.6976743 3.0976808 1.088822 0
4.8827128 3.0978556 1.0858541 0
5.0891261 3.0987074 1.0787816 0
5.3029814 3.0959728 1.1260351 0
5.5058694 3.0975978 1.1431921 0
5.6927295 3.0975974 1.1441313 0
5.9191966 3.0975657 1.0780704 0
6.0960531 3.098788 1.0975268 0
6.2730789 3.0964136 1.0437336 0
6.4934435 3.0977619 1.0782952 0
6.7118092 3.0983615 1.0800523 0
6.8970304 3.0968604 1.111894 0
7.0957494 3.0985882 1.1281364 0
7.3135123 3.0954459 1.1398393 0
7.4259191 3.0468299 1.1658207 0
-4.8786073 5.0157208 1.1270434 0
-4.6408057 5.0130773 1.1490521 0
-4.4665437 5.0142026 1.151667 0
-4.2914133 5.0138154 1.1428282 0
-4.1097016 5.0156837 1.1294335 0
-3.8930409 5.0164351 1.1211511 0
-3.6998911 5.0156951 1.0964208 0
-3.5086699 5.017262 1.0953302 0
-3.2964048 5.0174904 1.086905 0
-3.0906186 5.017355 1.074713 0
-2.8815646 5.0162129 1.0662943 0
-2.7078874 5.0159402 1.0676155 0
-2.5198615 5.0170636 1.0634204 0
-2.3133488 5.0161076 1.0907664 0
-2.1057029 5.015471 1.0904577 0
-1.8928297 5.0159268 1.100287 0
-1.6876585 5.01577 1.0767964 0
-1.4975389 5.0149755 1.1181957 0
-1.2974397 5.0153766 1.1255025 0
-1.1000748 5.0163445 1.1547252 0
-0.90155995 5.016336 1.1365347 0
-0.69987589 5.0162864 1.1369948 0
-0.49736336 5.0173302 1.1241086 0
-0.28561789 5.0172539 1.1248077 0
-0.10970526 5.0402355 1.1316553 0
-0.060615584 5.2506342 1.1480212 0
-0.064484291 5.5130653 1.0746629 0
-0.061905891 5.6877837 1.0309672 0
-0.064366572 5.9072089 1.1038188 0
-0.060948074 6.0700088 1.0770292 0
-0.06138391 6.2978382 1.0928651 0
-0.060984135 6.507504 1.1443689 0
-0.061050456 6.6995873 1.1582314 0
-0.060871661 6.8358669 1.1659923 0
-15.026614 7.5994267 1.0195067 0
-15.031997 7.7710624 1.0242708 0
-15.024328 7.8691745 1.0264894 0
3.7983787 7.9166498 1.0492949 0
-15.023107 8.1359186 1.0280837 0
3.7986381 8.0978813 1.069328 0
-15.022511 8.3086491 1.029856 0
3.7998745 8.2876711 1.0904303 0
-15.021831 8.4713421 1.0341107 0
3.7975671 8.4774332 1.1114626 0
-15.024369 8.6753674 1.0213761 0
-14.965693 8.7800598 1.0496386 0
3.7976291 8.7093935 1.0737258 0
-14.723653 8.8186464 1.0319791 0
-14.541174 8.8286104 1.0097618 0
-14.315277 8.8185654 1.0115945 0
-14.095112 8.8136101 1.0072809 0
-10.151976 8.8228722 1.1980267 0
-9.9100246 8.8233604 1.1862403 0
-9.7043829 8.8235559 1.173769 0
-9.4898825 8.8216181 1.1669946 0
-9.285531 8.8202839 1.1652617 0
-9.0999107 8.8236513 1.1533903 0
-8.9340839 8.8235607 1.1429613 0
-0.2175864 8.8234634 1.1758314 0
-0.080557875 8.8209295 1.1257155 0
0.10292467 8.8217945 1.1273049 0
0.31081644 8.8211842 1.1283897 0
0.5559361 8.8208542 1.1262945 0
0.72620875 8.8210516 1.0922482 0
0.9119463 8.821846 1.1091025 0
1.0967382 8.8213663 1.1089609 0
1.3001848 8.8220024 1.1146598 0
1.5255523 8.822093 1.1145676 0
1.721577 8.8220434 1.1069103 0
1.9047241 8.8213053 1.1267663 0
2.1260462 8.8214741 1.122275 0
2.3403013 8.8210144 1.098261 0
2.4960086 8.8221645 1.1076423 0
2.6862757 8.8217783 1.0956062 0
2.9219348 8.8212795 1.0785784 0
3.1127651 8.8206758 1.1076695 0
3.3042655 8.8214664 1.1126454 0
3.5043082 8.8197308 1.1237584 0
3.6748159 8.8221388 1.1149451 0
-5.4624696 -8.3775864 1.2377576 0
-5.2939968 -8.3770056 1.2257657 0
-5.1467137 -8.3771505 1.2124327 0
-3.9039128 -8.3798943 1.387408 0
-3.7001481 -8.3791809 1.371424 0
-3.4995995 -8.3792467 1.3790027 0
-3.2983019 -8.379055 1.3719406 0
-3.1169527 -8.3782816 1.3511555 0
-2.9408941 -8.3772879 1.3502681 0
-2.7599156 -8.378727 1.3334732 0
-2.5513899 -8.3782263 1.3241841 0
-2.3481758 -8.3777552 1.3067052 0
-2.1228392 -8.3779697 1.2982033 0
-1.9211881 -8.3774662 1.2830789 0
-1.7147377 -8.3793678 1.2657893 0
-1.5132759 -8.3774757 1.2665136 0
-1.3173182 -8.377862 1.2526981 0
-1.1364294 -8.3773499 1.2448679 0
-0.94561464 -8.3779707 1.2377502 0
-0.72403109 -8.3773699 1.2293584 0
-0.51019984 -8.3771553 1.229472 0
-0.30848292 -8.3776941 1.2187346 0
-0.14304668 -8.3758917 1.2231786 0
0.0097711384 -8.376936 1.2202737 0
0.23473121 -8.3783073 1.2168202 0
0.47596619 -8.3748264 1.2316132 0
0.71259898 -8.3763771 1.2313138 0
0.88350224 -8.3757992 1.231585 0
0.91610438 -6.0617795 1.3255314 0
0.91630489 -5.6169219 1.3002671 0
7.4305668 -4.0808554 1.2965866 0
7.4287376 -3.920989 1.2670244 0
7.4303589 -3.6892574 1.236256 0
7.4303575 -3.5039458 1.2478465 0
7.4292221 -3.3064346 1.2498715 0
7.4292107 -3.0841515 1.2834854 0
7.4301734 -2.8874993 1.2875925 0
7.429842 -2.6772134 1.2841623 0
7.432322 -2.45489 1.3058571 0
7.4306612 -2.2650146 1.3201886 0
7.4298615 -2.1052439 1.3179121 0
7.4308696 -1.9170054 1.2999566 0
7.429688 -1.7024093 1.3035305 0
-4.0129838 -1.4008721 1.3278233 0
-3.8659196 -1.4010694 1.2626114 0
-3.6631403 -1.4014788 1.2134609 0
7.4309392 -1.5023276 1.2992153 0
-4.0939708 -1.3156908 1.2961822 0
-3.7126517 -1.3999774 1.2459863 0
7.4299846 -1.2889212 1.307775 0
-4.096211 -1.0765986 1.3153397 0
7.430738 -1.0872663 1.2892455 0
-4.0972261 -0.91578645 1.3096606 0
7.4303474 -0.90928411 1.2890558 0
-4.0959516 -0.71612883 1.3132292 0
7.4300756 -0.70400834 1.2904369 0
-4.0960288 -0.48533791 1.3148265 0
7.4303021 -0.48772642 1.2934124 0
-4.0972877 -0.29668304 1.3200885 0
7.4294205 -0.27771619 1.3092766 0
-4.0960422 -0.14857113 1.3217874 0
7.4301419 -0.08369758 1.2929492 0
-4.0954108 0.089768112 1.3341637 0
7.4292669 0.10557573 1.2978977 0
-4.0965238 0.31899044 1.3251239 0
7.4301758 0.31107017 1.3153319 0
-4.09659 0.52989286 1.3137327 0
7.4291139 0.52523839 1.3104585 0
-4.0964675 0.73347342 1.3252844 0
7.4299746 0.70894444 1.3341403 0
-4.0958781 0.89647692 1.2525481 0
7.4302678 0.88339829 1.308038 0
-4.0957098 1.1258242 1.2852786 0
7.4297943 1.1016421 1.3236758 0
-4.0952988 1.3226678 1.2830994 0
7.4300323 1.3022181 1.3301371 0
-4.0949626 1.5258063 1.2573723 0
7.4303141 1.4970385 1.3348591 0
-4.0971208 1.7305366 1.2636292 0
7.4301586 1.7173163 1.3489835 0
-4.0979981 1.8701553 1.2774147 0
7.4293947 1.897557 1.3322793 0
7.4297204 2.0759199 1.3435391 0
7.4276772 2.3148518 1.3543063 0
7.4292736 2.516861 1.363731 0
7.4282718 2.693676 1.3444539 0
7.4294343 2.9027517 1.2699447 0
2.7597156 3.098628 1.2027171 0
2.8617513 3.0974264 1.2207419 0
3.0841849 3.098058 1.207943 0
3.2920551 3.0983264 1.2565846 0
3.4898548 3.0972514 1.2643543 0
3.702914 3.0970359 1.302641 0
3.8813968 3.0964277 1.3080339 0
4.0720596 3.0974295 1.2976879 0
4.2781224 3.0961485 1.3485544 0
4.5005059 3.0973313 1.2830571 0
4.6965146 3.0967758 1.2915916 0
4.8772669 3.0955369 1.2924851 0
5.0827928 3.097126 1.2907201 0
5.2990847 3.0953469 1.3394873 0
5.4923024 3.0995474 1.3357215 0
5.6933007 3.096997 1.3154504 0
5.8912702 3.0957103 1.2631623 0
6.0927463 3.0957379 1.2662089 0
6.2727323 3.0960507 1.268003 0
6.4931841 3.0964971 1.315116 0
6.6946115 3.0962129 1.3434745 0
6.8854375 3.0987651 1.3333992 0
7.1282706 3.0996008 1.3544655 0
7.3149996 3.0847003 1.3099102 0
7.4220548 3.0454595 1.3099949 0
-5.0002251 5.0120969 1.2091866 0
-4.8991847 5.0157747 1.2678022 0
-4.7207236 5.0161414 1.2573842 0
-4.4973187 5.0167279 1.2818331 0
-4.3204317 5.0139937 1.2878654 0
-4.0796676 5.0131664 1.3023224 0
-3.8941612 5.01406 1.3125436 0
-3.6925995 5.0134945 1.3149598 0
-3.5132067 5.0151196 1.3110366 0
-3.2890098 5.0149808 1.3181905 0
-3.0863764 5.0158362 1.3118718 0
-2.8896561 5.0156088 1.277567 0
-2.7128243 5.0149765 1.2775201 0
-2.5111547 5.0158997 1.2817597 0
-2.3000138 5.0160251 1.2946203 0
-2.1054535 5.0161357 1.2878139 0
-1.8813666 5.0146832 1.2944227 0
-1.6886507 5.0151858 1.2811344 0
-1.4840738 5.0145903 1.3011135 0
-1.2778342 5.0151238 1.3154325 0
-1.0764829 5.0130677 1.3366522 0
-0.88005733 5.0150566 1.330791 0
-0.70266634 5.0147471 1.3445265 0
-0.50299758 5.0160694 1.3385277 0
-0.27718902 5.0156894 1.3099144 0
-0.10768632 5.0449858 1.3331213 0
-0.062618688 5.3158827 1.3122476 0
-0.062630072 5.4956269 1.2538168 0
-0.061068743 5.6134644 1.2373424 0
-0.064659387 5.885778 1.2993549 0
-0.061964855 6.0815973 1.3478135 0
-0.060453258 6.2956114 1.3467319 0
-0.066093579 6.5014806 1.297645 0
-0.063562974 6.6960983 1.2836795 0
-0.065229446 6.921402 1.2454342 0
3.8001256 7.9162111 1.3616575 0
3.7976594 8.0915527 1.3865137 0
3.7964087 8.7219315 1.3826587 0
-13.058764 8.8197966 1.3904246 0
-12.902555 8.8183746 1.379756 0
-12.751587 8.8190403 1.3695815 0
-12.598862 8.8227329 1.3554693 0
-12.292736 8.818121 1.3674073 0
-12.092768 8.8213329 1.3768178 0
-11.89992 8.8184938 1.359641 0
-11.706427 8.8199091 1.3375056 0
-11.511529 8.8191061 1.3240774 0
-11.278308 8.8191776 1.3318951 0
-11.097187 8.8208752 1.327926 0
-10.902635 8.8191395 1.2989031 0
-10.695192 8.8207283 1.2928457 0
-10.497783 8.8221321 1.2725432 0
-10.293175 8.819684 1.2820076 0
-10.094899 8.8213634 1.2616938 0
-9.8824987 8.8206444 1.2549795 0
-9.6951084 8.8187008 1.2532252 0
-9.4558249 8.8221712 1.2349651 0
-9.290575 8.8184853 1.2486875 0
-9.1005335 8.8184948 1.2344133 0
-8.9572973 8.8179827 1.2255965 0
-0.060557157 8.8215075 1.324133 0
0.12397548 8.8202009 1.3128375 0
0.31359172 8.8187428 1.3237054 0
0.51058173 8.818285 1.3353994 0
0.70502937 8.8202343 1.3438733 0
0.93107945 8.8209848 1.3381327 0
1.1254693 8.8195314 1.3423119 0
1.3240384 8.821475 1.337847 0
1.5285929 8.823349 1.3301375 0
1.7251692 8.8226881 1.3480225 0
1.9300213 8.8210268 1.3351332 0
2.1500008 8.8228445 1.3680254 0
2.3682878 8.8210106 1.2446903 0
