# .PCD v0.7 - Point Cloud Data file format
VERSION 0.7
FIELDS x y z intensity
SIZE 4 4 4 4
TYPE F F F F
COUNT 1 1 1 1
WIDTH 1450
HEIGHT 1
VIEWPOINT 0 0 0 1 0 0 0
POINTS 1450
DATA ascii
7.5505619 -7.300385 1.3016206 0
-7.3344622 -7.19557 1.2370064 0
-7.1029382 -7.0678511 1.228318 0
4.283092 -7.1192126 1.2972574 0
7.5508709 -7.0901704 1.3057665 0
-6.9687757 -6.9837661 1.2014545 0
-6.6542082 -6.8110752 1.3852108 0
4.2822256 -6.9311495 1.3119311 0
7.5505071 -6.8994851 1.3006924 0
4.2827711 -6.7318954 1.3032877 0
7.5493917 -6.6935797 1.2706954 0
-6.2589817 -6.5829806 1.3397146 0
4.2836847 -6.5103889 1.2957777 0
7.5507059 -6.4849963 1.2722989 0
-14.908702 -6.299912 1.3635995 0
-6.0367336 -6.2233124 1.3625393 0
-5.9037385 -6.2895365 1.3590977 0
4.2828631 -6.3008137 1.3083192 0
7.5492768 -6.2761226 1.2782743 0
-14.90899 -6.1125722 1.3593276 0
-6.8773975 -6.0063839 1.3643978 0
-6.6871834 -6.055429 1.3500971 0
-6.5033131 -6.1036596 1.3364456 0
-6.2568092 -6.171473 1.3184679 0
-6.1478558 -6.1974545 1.3103993 0
4.2832236 -6.1150866 1.272228 0
7.5497918 -6.0967455 1.3246673 0
-14.909887 -5.9260855 1.3552402 0
-7.2661343 -5.9025674 1.3938252 0
-7.0669589 -5.9543257 1.3786166 0
4.2824063 -5.9150662 1.3267096 0
7.550571 -5.8972106 1.3350189 0
-14.911166 -5.7404375 1.3513412 0
-8.2901716 -5.623075 1.2427107 0
-8.0829229 -5.675941 1.234476 0
-7.8967552 -5.7271786 1.220418 0
-7.7010927 -5.7787852 1.2079095 0
4.2839103 -5.7169704 1.3118105 0
7.5496702 -5.7119374 1.3095174 0
-14.906859 -5.5173335 1.3464916 0
-9.0468483 -5.4196577 1.2944067 0
-8.8486795 -5.4732103 1.2814999 0
-8.6537399 -5.5251112 1.2688344 0
-8.4637814 -5.575923 1.2565641 0
4.2817116 -5.535821 1.2815548 0
7.5495329 -5.5179057 1.2878196 0
-14.907376 -5.2962165 1.3421628 0
-9.7161779 -5.240047 1.344017 0
-9.4604435 -5.3092003 1.3215933 0
-9.2518826 -5.3653193 1.3078667 0
4.2860541 -5.3394227 1.2764704 0
7.5486407 -5.3100982 1.274075 0
-14.904819 -5.0754299 1.3378584 0
4.2855191 -5.1034827 1.3086702 0
7.5480161 -5.0927744 1.3001018 0
-14.906005 -4.8926754 1.334636 0
4.285892 -4.9032249 1.299247 0
7.5487747 -4.9024696 1.2934383 0
-14.906449 -4.7285953 1.3318322 0
4.2853217 -4.7536349 1.2659909 0
7.5483093 -4.7105746 1.2890974 0
-14.907256 -4.492342 1.3279934 0
4.2873459 -4.5358419 1.2227358 0
7.5501933 -4.514358 1.2886946 0
-14.904925 -4.2745275 1.324477 0
7.549057 -4.3127718 1.2951586 0
-14.909184 -4.0583024 1.321573 0
7.5491986 -4.1222672 1.3033479 0
-14.909144 -3.8780556 1.3190839 0
1.1225278 -3.8757839 1.310614 0
1.2944682 -3.8759203 1.3112142 0
1.4938236 -3.8762212 1.3134428 0
1.7054549 -3.8770523 1.2906193 0
1.8988705 -3.8757055 1.269776 0
2.1030478 -3.8754339 1.2457741 0
2.2948856 -3.8769913 1.2290527 0
2.5181434 -3.8756266 1.2146707 0
3.7543883 -3.8716753 1.2042894 0
3.8808846 -3.8735325 1.2232519 0
7.5494189 -3.9148118 1.2770022 0
-14.907376 -3.6980138 1.3166398 0
7.5488715 -3.7039299 1.2768471 0
-14.911008 -3.4830866 1.3142385 0
7.5485311 -3.4933624 1.2471886 0
-14.908803 -3.2680087 1.3116825 0
7.5476294 -3.3432033 1.3020785 0
-14.908404 -3.0535483 1.3094366 0
7.5480652 -3.1412759 1.2817442 0
7.5461006 -2.8912423 1.3077292 0
7.545969 -2.6959298 1.2931041 0
7.5446663 -2.4845669 1.3164413 0
7.5463414 -2.3019366 1.3084282 0
-14.915359 -2.1417561 1.399711 0
7.5462141 -2.0834956 1.2944647 0
-11.713969 -1.93957 1.3660375 0
-11.474005 -1.8012578 1.3451004 0
7.5454993 -1.8832697 1.2922611 0
-11.319788 -1.7114933 1.3316818 0
7.5445323 -1.7140372 1.2783884 0
-3.805639 -1.4115078 1.2177327 0
-3.6968472 -1.4140627 1.2952964 0
-3.4950154 -1.4139127 1.2766398 0
-3.3131523 -1.4117451 1.2853324 0
-3.122932 -1.4133084 1.2400835 0
-2.9177399 -1.410791 1.2692689 0
-2.7131076 -1.4099642 1.2564623 0
-2.4763615 -1.411687 1.3420848 0
-2.2932518 -1.4132338 1.3402337 0
-2.101311 -1.4137702 1.3376281 0
-1.9164144 -1.4135073 1.2947396 0
-1.7081987 -1.4307654 1.2593354 0
-1.5066295 -1.4300869 1.2474453 0
-1.3618526 -1.4130772 1.3002281 0
-1.0816804 -1.4129087 1.3596404 0
-0.91315651 -1.4124876 1.327485 0
-0.71510917 -1.4297411 1.297617 0
-0.48895279 -1.4123387 1.2494969 0
-0.26875639 -1.4126976 1.2520994 0
-0.09728352 -1.4132079 1.3275146 0
0.10011244 -1.4365507 1.3325435 0
0.3049925 -1.4132468 1.2805477 0
0.48044476 -1.4132644 1.2305698 0
0.60990047 -1.4131203 1.2166033 0
7.5415893 -1.5270022 1.2885613 0
-3.979296 -1.310181 1.3120158 0
7.5439963 -1.3261924 1.2807155 0
-3.9859979 -1.1110126 1.3122665 0
7.542254 -1.1394143 1.2739348 0
-3.9850788 -0.92156351 1.3131778 0
7.5423403 -0.93056554 1.271697 0
-3.9848468 -0.71466392 1.314119 0
7.5412803 -0.71995384 1.2641357 0
-3.9852741 -0.50088608 1.3241458 0
7.5419827 -0.52292007 1.2622696 0
-3.9857647 -0.29124179 1.3217169 0
7.5421963 -0.32453072 1.2619188 0
-3.9860749 -0.10018177 1.3129401 0
7.5418525 -0.12628095 1.2630054 0
-3.9864211 0.080009244 1.322214 0
7.5411649 0.080150619 1.2657853 0
-3.986613 0.28229913 1.3227524 0
7.5404878 0.27337739 1.2699841 0
-3.9876988 0.49044302 1.3153681 0
7.5413051 0.47296086 1.2763798 0
-3.9882917 0.69589013 1.3090364 0
7.5393577 0.67769581 1.2838899 0
-3.9877541 0.8971386 1.3240591 0
7.5400205 0.87753081 1.2934107 0
-3.9891663 1.0901344 1.3128999 0
7.54001 1.072621 1.3042713 0
-3.9882076 1.2944977 1.336161 0
7.5390768 1.2902557 1.2910509 0
-3.9891148 1.4810928 1.3024542 0
7.5380192 1.4720033 1.3073575 0
-3.9880245 1.6932591 1.3096679 0
7.5387731 1.6754683 1.3030828 0
-3.9902 1.8452712 1.3073161 0
7.539135 1.8961836 1.2692345 0
7.5406156 2.092603 1.2819055 0
7.5397 2.3031948 1.2814419 0
7.5388083 2.5042324 1.2844632 0
7.5384498 2.7065187 1.3086507 0
7.5378394 2.8572836 1.3004913 0
1.7535367 3.0933037 1.2921824 0
1.9028515 3.0944862 1.2663879 0
2.073019 3.0957515 1.2800534 0
2.3014266 3.0981958 1.2880636 0
2.5041881 3.0981994 1.2920721 0
2.6489899 3.0990229 1.3192645 0
2.8842435 3.0994608 1.3238162 0
3.0635924 3.1003127 1.3181124 0
3.253684 3.0993106 1.3108528 0
3.4737175 3.0984454 1.2703873 0
3.6722012 3.0985274 1.3046309 0
3.8800635 3.100147 1.3100412 0
4.0819836 3.0985181 1.2968248 0
4.2752295 3.0972519 1.2866608 0
4.4743013 3.0995822 1.2821083 0
4.6822886 3.0987713 1.2825201 0
4.8902812 3.0998862 1.2961872 0
5.1082067 3.0999026 1.2830712 0
5.3027573 3.0981524 1.2947772 0
5.4674139 3.1016355 1.3104141 0
5.6741161 3.1019011 1.2918879 0
5.8869052 3.1010869 1.3043185 0
6.0945191 3.1033616 1.2748845 0
6.2768106 3.0997171 1.2890218 0
6.4814177 3.0997996 1.3012908 0
6.6742096 3.1005316 1.309603 0
6.8551373 3.1026595 1.2978928 0
7.0935917 3.1023419 1.283214 0
7.293685 3.1013784 1.2972692 0
7.4965596 3.0690153 1.290447 0
-14.915126 4.7259097 1.3714651 0
-14.912624 4.9244232 1.3673065 0
-14.912969 5.1071663 1.3536814 0
-4.8451853 5.0090408 1.3108505 0
-4.6858492 5.0098114 1.3040596 0
-4.4673309 5.0091233 1.2795026 0
-4.2757578 5.0091062 1.2946321 0
-4.0870733 5.0115886 1.3051932 0
-3.9042332 5.0110412 1.2823882 0
-3.7058377 5.0105948 1.2832382 0
-3.5078466 5.0117579 1.298209 0
-3.3036132 5.009696 1.3308823 0
-3.0879874 5.010231 1.3150191 0
-2.8919287 5.0111809 1.302225 0
-2.705071 5.009604 1.3021815 0
-2.4962354 5.0088606 1.2910149 0
-2.2827802 5.0093465 1.2756789 0
-2.0715129 5.0097933 1.2763418 0
-1.879203 5.0101328 1.2967242 0
-1.6740412 5.0097628 1.2810024 0
-1.4706826 5.0102782 1.2895366 0
-1.2864276 5.0095396 1.287328 0
-1.0737514 5.0097275 1.3064274 0
-0.8771801 5.010417 1.314575 0
-0.69509941 5.0111647 1.3018283 0
-0.48383757 5.0129628 1.3181252 0
-0.30502638 5.011786 1.3306634 0
-0.082377285 5.0190697 1.2994934 0
0.031589288 5.0889225 1.3288528 0
-14.914519 5.3041849 1.3689409 0
0.04134221 5.2989869 1.3495115 0
-14.912515 5.5082493 1.3762895 0
0.038972586 5.5258012 1.3407578 0
-14.9144 5.6982613 1.3583052 0
0.042142868 5.7866731 1.2108718 0
-14.916532 5.894381 1.3788732 0
0.041118462 5.8835883 1.2835191 0
-14.913105 6.1254072 1.3644216 0
0.041427594 6.1466155 1.2577741 0
0.04103462 6.3506293 1.2961622 0
-14.911461 6.478878 1.3371547 0
0.039494414 6.5602889 1.3359318 0
-14.912361 6.6760683 1.3394246 0
0.03844434 6.7741098 1.3552439 0
-14.912951 6.9144077 1.3423533 0
-14.912956 7.1140418 1.3449105 0
-14.910921 7.2740827 1.3469641 0
-14.913832 7.4773688 1.3500066 0
3.9212701 7.5292163 1.3167748 0
-14.912203 7.6803508 1.3529356 0
3.9209197 7.6918416 1.3394971 0
-14.908167 7.924891 1.3565303 0
3.9233012 7.9172621 1.3713411 0
-14.914852 8.1345253 1.3603485 0
3.921716 8.108799 1.3983041 0
-14.91509 8.3084488 1.2829766 0
-14.914021 8.5021305 1.2471863 0
-14.913745 8.6976433 1.27587 0
-14.689715 8.8046541 1.2626878 0
-14.491845 8.8040009 1.2538191 0
-14.289954 8.8074408 1.2702827 0
-14.032564 8.8074417 1.3233705 0
-13.701384 8.8096828 1.3051722 0
-13.441649 8.8042736 1.3917192 0
-13.31469 8.8073893 1.3544906 0
-13.115037 8.8077049 1.3556216 0
-12.897324 8.8069773 1.3331345 0
-12.693024 8.8078365 1.3407822 0
-12.512827 8.8093567 1.338003 0
-12.313373 8.8092957 1.3265698 0
-12.090426 8.8110037 1.3073664 0
-11.899323 8.8106661 1.2958672 0
-11.691343 8.811388 1.3275621 0
-11.517329 8.8098917 1.340578 0
-11.298383 8.8121529 1.3272203 0
-11.09393 8.8107595 1.3507072 0
-10.911924 8.81077 1.3261909 0
-10.690883 8.8094234 1.3279179 0
-10.459651 8.8124599 1.2774601 0
-10.254108 8.8125496 1.2807348 0
-10.04402 8.8105602 1.2661741 0
-9.874855 8.8144302 1.2009364 0
-9.768198 8.8063049 1.3011695 0
-9.5263901 8.8101826 1.2857876 0
-0.42545319 8.8209839 1.3915716 0
-0.27587318 8.8178635 1.389545 0
-0.11566687 8.815733 1.2955053 0
0.10734036 8.8155985 1.3250711 0
0.33214951 8.8159809 1.3869336 0
0.52810431 8.816946 1.387574 0
0.72413677 8.8142157 1.3883988 0
0.93429619 8.8167324 1.3906889 0
1.0983357 8.8157444 1.3926256 0
1.3187568 8.8151464 1.3964431 0
1.6187363 8.8156824 1.2010919 0
1.8210795 8.8152456 1.2035527 0
2.0242786 8.8153782 1.2066522 0
2.2128744 8.8159161 1.2100947 0
2.4186103 8.8175659 1.2145481 0
2.7054458 8.8159904 1.2211978 0
-9.2846832 -8.3847551 1.4355989 0
-9.0694857 -8.3260641 1.4178764 0
-8.9170418 -8.3861246 1.4240558 0
-8.7267303 -8.3861399 1.4115195 0
-8.0234118 -8.3895435 1.5879066 0
-7.8024883 -8.3916969 1.570114 0
-7.7275033 -8.3899899 1.5818013 0
-7.5266528 -8.3891745 1.5666237 0
-7.2958908 -8.3884439 1.5439271 0
-7.1190667 -8.3888483 1.5411215 0
-6.8992949 -8.3888721 1.5181986 0
-6.6753812 -8.3869791 1.4997114 0
-6.5100188 -8.3878031 1.5266948 0
-6.3215837 -8.3879051 1.5284854 0
-6.1046586 -8.3870783 1.4940773 0
-5.8841815 -8.388299 1.4767394 0
-5.6464205 -8.3866081 1.4896765 0
-5.4311242 -8.3874083 1.5106997 0
-5.2648616 -8.3858805 1.4983507 0
-5.1188416 -8.3877611 1.5025713 0
-4.9105897 -8.3857889 1.448274 0
-4.7097535 -8.388134 1.5069271 0
-4.5147314 -8.3883047 1.468678 0
-4.3119888 -8.3872318 1.4299034 0
4.3142385 -8.3263044 1.457737 0
4.4550867 -8.3767805 1.4661511 0
4.682229 -8.3759184 1.4587607 0
4.8977585 -8.3753443 1.4576204 0
5.1141958 -8.3761606 1.4670804 0
5.3001404 -8.3742266 1.4646188 0
5.5057383 -8.3759947 1.4780897 0
5.7113156 -8.3744917 1.4700366 0
5.9198833 -8.3735371 1.4958959 0
6.0993471 -8.3741846 1.4987321 0
6.3065872 -8.374032 1.4896586 0
6.5101337 -8.3728952 1.494743 0
6.7063799 -8.3731251 1.5056134 0
6.8814998 -8.3728981 1.5138764 0
7.079587 -8.372942 1.5097053 0
7.2914276 -8.3735905 1.5118053 0
7.5001221 -8.3171682 1.5104672 0
-8.8864098 -8.0979681 1.4054599 0
4.2808585 -8.1236801 1.4925848 0
7.5496416 -8.1046 1.5029001 0
4.2807579 -7.9528437 1.5455793 0
7.5503693 -7.910665 1.4976494 0
-8.023139 -7.6016603 1.542956 0
4.2814364 -7.7414408 1.5227091 0
7.5496426 -7.7077088 1.4904789 0
4.2823009 -7.4938006 1.5001043 0
7.5492201 -7.4881954 1.4835675 0
-7.4767418 -7.2837014 1.5348032 0
4.2817106 -7.2983842 1.4690968 0
7.5474257 -7.3009062 1.5048149 0
-7.0739732 -7.0504799 1.485724 0
4.2832532 -7.1283045 1.4900646 0
7.5484452 -7.1345849 1.5154279 0
-6.7266827 -6.8474255 1.49295 0
4.2809854 -6.9201007 1.5085348 0
7.5477409 -6.8934216 1.5131763 0
-6.4070425 -6.6627197 1.4514647 0
-6.2988353 -6.6027222 1.597801 0
4.2810302 -6.7035933 1.4811343 0
7.5476584 -6.6844311 1.488595 0
-6.2900038 -6.5885687 1.5802572 0
4.2819343 -6.501183 1.5187876 0
7.5479722 -6.4966331 1.4821364 0
-6.1114635 -6.2086887 1.4801143 0
-5.9286237 -6.2684922 1.5035309 0
4.2830534 -6.3084168 1.4841517 0
7.5477881 -6.2999954 1.4781045 0
-14.905612 -6.1051941 1.4947802 0
-6.8495836 -6.007143 1.4472679 0
-6.7020059 -6.0491624 1.4885832 0
-6.5199294 -6.0971351 1.4891657 0
-6.307796 -6.1545734 1.4664376 0
-6.1382608 -6.1962996 1.5434979 0
4.2837768 -6.0875535 1.4434406 0
7.5472646 -6.0789714 1.510824 0
-14.904833 -5.86759 1.4863586 0
-7.4953489 -5.8391428 1.4687943 0
-7.2296338 -5.9077129 1.5064001 0
-7.0631652 -5.949791 1.4837593 0
-6.936698 -5.9904985 1.5161493 0
4.2845936 -5.8519535 1.5463872 0
7.5474477 -5.8757129 1.5252533 0
-14.905621 -5.6859741 1.4802545 0
-8.283926 -5.6268001 1.5302833 0
-8.0664015 -5.6859241 1.4843737 0
-7.8521256 -5.7425561 1.4817688 0
-7.6932187 -5.7863793 1.5029389 0
4.2843146 -5.6753755 1.5313417 0
7.5473056 -5.6884003 1.4985073 0
-14.907507 -5.4689603 1.4732629 0
-8.991683 -5.4418235 1.5297818 0
-8.6961384 -5.5194478 1.5347382 0
-8.5035992 -5.5697355 1.533601 0
-8.392581 -5.5924549 1.5674993 0
4.2848597 -5.503684 1.4839045 0
7.5485096 -5.4930549 1.4820396 0
-14.906998 -5.2883534 1.4675148 0
-9.8133879 -5.2200994 1.5970109 0
-9.6034412 -5.2783246 1.5797492 0
-9.3939657 -5.3339596 1.5625358 0
-9.1878033 -5.3877993 1.5456538 0
4.2850161 -5.3241954 1.4352013 0
7.5487823 -5.3028789 1.4816254 0
-14.904435 -5.0900927 1.4613305 0
4.2876382 -5.1759114 1.4060062 0
7.5487676 -5.1009459 1.5082833 0
7.5473676 -4.8935752 1.4961916 0
-14.908663 -4.7503424 1.4517493 0
7.5452118 -4.7187948 1.5215942 0
-14.908188 -4.5361657 1.4458719 0
7.5463223 -4.5162702 1.4937239 0
-14.905937 -4.2868795 1.4392729 0
7.5458779 -4.3330321 1.487071 0
-14.905279 -4.0562959 1.4335732 0
7.5436606 -4.1070528 1.5052261 0
-14.90801 -3.8266871 1.4284428 0
1.1146101 -3.8774965 1.4261203 0
1.2765305 -3.8784249 1.4083323 0
7.5435314 -3.9039373 1.4935387 0
-14.906569 -3.6147909 1.4237311 0
7.5447969 -3.7141933 1.5115767 0
-14.909868 -3.4037304 1.4196162 0
7.5447125 -3.4971256 1.4813499 0
-14.903009 -3.2625003 1.4164107 0
7.5458083 -3.2762845 1.509824 0
-14.908669 -3.1223974 1.4141846 0
7.5454345 -3.1037292 1.4572783 0
-14.907928 -2.9117968 1.4104521 0
7.548121 -2.9316566 1.4480782 0
-14.906952 -2.631403 1.4058785 0
7.5419106 -2.6713033 1.560873 0
-14.904654 -2.4213002 1.4026694 0
7.5403342 -2.4978302 1.5676664 0
-14.907913 -2.2465019 1.4005377 0
7.5397353 -2.2896481 1.556429 0
7.5410161 -2.0872819 1.5321398 0
-11.731665 -1.94276 1.4630568 0
-11.576775 -1.8514619 1.4498768 0
7.5415072 -1.900808 1.5209584 0
-11.471067 -1.7915404 1.440922 0
-11.318394 -1.7031586 1.428012 0
7.5416789 -1.7030395 1.5102159 0
-11.069756 -1.5593815 1.4070761 0
-4.0161095 -1.5569754 1.4953015 0
-3.9078228 -1.4125332 1.4601218 0
-3.7126846 -1.4134859 1.5306067 0
-3.4679132 -1.4149883 1.5468296 0
-3.2727575 -1.4142871 1.5226405 0
-3.1426823 -1.4131054 1.4935597 0
-2.9387176 -1.4138249 1.4952068 0
-2.709172 -1.4283935 1.4595722 0
-2.5211799 -1.4129605 1.4425383 0
-2.303515 -1.4110463 1.5168223 0
-2.0912919 -1.4121703 1.5795257 0
-1.8756739 -1.4133574 1.5384341 0
-1.6804663 -1.4123175 1.4966629 0
-1.4960473 -1.4416696 1.4560692 0
-1.322958 -1.4368759 1.4531268 0
-1.0967009 -1.4131856 1.4938779 0
-0.89713126 -1.415078 1.5615633 0
-0.71086138 -1.4151796 1.5267122 0
-0.51112533 -1.4145877 1.4725887 0
-0.34707007 -1.4143362 1.4343162 0
-0.18174696 -1.4105043 1.4112043 0
7.5419202 -1.5001488 1.500403 0
-3.977855 -1.3079308 1.505767 0
7.5417266 -1.298992 1.4919685 0
-3.9896257 -1.0258374 1.4959809 0
7.5419388 -1.1088892 1.4852628 0
-3.9894886 -0.83189845 1.4926533 0
7.5387421 -0.91482842 1.4797275 0
-3.9914486 -0.66198891 1.5101819 0
7.5405941 -0.69723606 1.4743587 0
-3.9920051 -0.43662333 1.5132371 0
7.5406165 -0.5005278 1.4713606 0
-3.9917989 -0.26078597 1.5009543 0
7.5404992 -0.30468845 1.469614 0
-3.9918869 -0.069480807 1.4891195 0
7.5407639 -0.10331244 1.4692732 0
-3.9916637 0.10729084 1.4970446 0
7.5402813 0.10427996 1.4701945 0
-3.9918058 0.32614225 1.4741127 0
7.5401878 0.29972759 1.4724916 0
-3.9928024 0.51302487 1.4490778 0
7.5396805 0.49577928 1.4760281 0
-3.9903259 0.72099304 1.455932 0
7.5383625 0.69576961 1.4808058 0
-3.9934273 0.90486664 1.4731169 0
7.5397339 0.89420223 1.4874734 0
-3.9907126 1.1422415 1.4578707 0
7.5399613 1.0954188 1.4952885 0
-3.9917774 1.3317618 1.4621061 0
7.5396152 1.2977781 1.5043592 0
-3.9918091 1.534157 1.4724886 0
7.5391784 1.5027493 1.5149096 0
-3.991797 1.7169721 1.4673474 0
7.5389524 1.7025193 1.5265237 0
-3.9924538 1.8636833 1.4789933 0
7.5396996 1.9190793 1.4627609 0
7.5394716 2.1261191 1.484354 0
7.5372705 2.29972 1.4898974 0
7.5364709 2.4781582 1.5067825 0
7.5382729 2.6742942 1.4959641 0
7.5374718 2.8987522 1.4672793 0
1.7230661 3.096957 1.4624383 0
1.8466725 3.0989733 1.4950303 0
2.0638785 3.0992243 1.5145901 0
2.2760217 3.0981598 1.4673595 0
2.4663699 3.0984631 1.4426661 0
2.6702306 3.1027546 1.487812 0
2.8051729 3.0998106 1.4708712 0
3.0974121 3.1015353 1.4385383 0
3.3013322 3.1011276 1.4173841 0
3.4544868 3.1030478 1.4034675 0
4.5001435 3.0899386 1.4349173 0
4.707243 3.0892057 1.4797461 0
4.9112964 3.0900784 1.5247412 0
5.0831923 3.0935242 1.5167499 0
5.2534766 3.0993268 1.4604367 0
5.4691267 3.0945101 1.4623196 0
5.656971 3.095854 1.4735037 0
5.8636632 3.0968583 1.5191188 0
6.098424 3.0993171 1.4577011 0
6.290719 3.100491 1.5077417 0
6.4850159 3.1026957 1.4516369 0
6.6813478 3.1051219 1.4732263 0
6.8689675 3.1022713 1.4935707 0
7.1233368 3.1042204 1.5123742 0
7.2814021 3.1021428 1.4947908 0
7.4912519 3.0745869 1.488094 0
-4.8514533 5.0087423 1.5335253 0
-4.713655 5.008606 1.5263441 0
-4.4912505 5.0086784 1.5212097 0
-4.2763443 5.0083671 1.4969532 0
-4.0859056 5.0076885 1.500977 0
-3.8787484 5.0075173 1.4853911 0
-3.6678765 5.008347 1.5001312 0
-3.4717088 5.0083318 1.4792838 0
-3.2849679 5.0090885 1.4846336 0
-3.0863173 5.0099306 1.5277284 0
-2.8860803 5.0098391 1.5229353 0
-2.6861887 5.0108337 1.5094194 0
-2.4880226 5.0102115 1.4916366 0
-2.2834473 5.0114636 1.4979273 0
-2.0748851 5.0123191 1.5027474 0
-1.8823056 5.0101829 1.5159534 0
-1.6869693 5.009903 1.5183333 0
-1.5054361 5.0120578 1.4975104 0
-1.2978553 5.0108466 1.4908142 0
-1.0987582 5.0124898 1.4726875 0
-0.90380955 5.0125818 1.4576762 0
-0.6829232 5.0132751 1.4776407 0
-0.47966933 5.01227 1.4772447 0
-0.28924581 5.0120807 1.507673 0
-0.071104445 5.0198493 1.4954114 0
0.036466837 5.153441 1.486096 0
0.036799382 5.3292036 1.5159416 0
0.036812425 5.5413003 1.5055183 0
-14.915051 5.7191949 1.4011841 0
0.036922734 5.6937194 1.4703283 0
-14.912048 5.8904791 1.4041924 0
0.037392348 5.9421597 1.4556546 0
-14.916317 6.0948086 1.4856522 0
0.036391694 6.1557374 1.4984819 0
-14.917679 6.2892752 1.4797132 0
0.035639804 6.3372903 1.5385095 0
-14.917271 6.4942598 1.4603038 0
0.033605754 6.4719195 1.5588102 0
-14.91815 6.6999717 1.4879968 0
0.035635788 6.7103958 1.5175098 0
-14.918167 6.9099159 1.4721633 0
0.03829357 6.8888721 1.4216886 0
-14.917205 7.1169076 1.5010346 0
-14.916188 7.3162251 1.495814 0
-14.915877 7.5031838 1.5104815 0
-14.916537 7.6978059 1.5112394 0
-14.91653 7.896708 1.5006588 0
-14.916387 8.1100664 1.5249873 0
-14.91769 8.3260212 1.5233485 0
3.9209507 8.2908163 1.4240869 0
-14.915775 8.506814 1.5080872 0
3.9211287 8.4821987 1.4513792 0
-14.909091 8.7041149 1.5014405 0
3.9219706 8.6819277 1.480009 0
-14.688991 8.8094234 1.5111778 0
-14.50272 8.8096867 1.5148959 0
-14.302661 8.8099222 1.5031309 0
-14.110146 8.8110952 1.5119203 0
-13.928927 8.8107624 1.5014948 0
-13.726746 8.8105421 1.4842875 0
-13.513194 8.8116035 1.4838724 0
-13.322198 8.8117065 1.497016 0
-13.085382 8.811408 1.4928939 0
-12.899131 8.8129358 1.4695349 0
-12.735312 8.8127174 1.4705541 0
-12.546956 8.8122015 1.4787731 0
-12.315768 8.8130522 1.4651016 0
-12.108941 8.8121271 1.4526147 0
-11.908527 8.8128986 1.4406599 0
-11.71471 8.8141642 1.4725857 0
-11.497715 8.8113985 1.4661746 0
-11.300884 8.816864 1.4800767 0
-11.072561 8.8147373 1.4901634 0
-10.88398 8.815443 1.4790646 0
-10.728577 8.8159409 1.4696229 0
-10.520343 8.8124619 1.517725 0
-10.336725 8.8124275 1.5048671 0
-9.0752716 8.8139706 1.5923842 0
-8.8849611 8.811985 1.5745454 0
-8.7324791 8.8134661 1.5606377 0
-0.15369296 8.815938 1.5220436 0
0.018578768 8.8200903 1.5199242 0
0.22215813 8.8176699 1.5168035 0
0.40898687 8.8188734 1.5151793 0
0.61091352 8.8184395 1.5138335 0
0.81239706 8.8199348 1.5135286 0
1.0136818 8.8218584 1.514042 0
1.2149675 8.8180771 1.5142815 0
1.4700886 8.816577 1.4582431 0
1.674746 8.8172302 1.4619319 0
1.872103 8.8160172 1.4658742 0
2.0709426 8.816246 1.4707568 0
2.2634416 8.8165321 1.4761865 0
2.4657941 8.8174934 1.4826205 0
2.7088366 8.8194818 1.5087255 0
2.9166358 8.8134832 1.4466879 0
3.1229174 8.8133965 1.4561793 0
3.3327577 8.8145962 1.4666812 0
3.5268068 8.812624 1.4765083 0
3.7246695 8.81252 1.4873841 0
3.8705094 8.8126659 1.4957541 0
-9.3083324 -8.38869 1.7215 0
-9.1281509 -8.3545341 1.6873047 0
-8.930192 -8.3899698 1.7194582 0
-8.7037792 -8.3881998 1.7309735 0
-8.4795046 -8.3873672 1.7204863 0
-8.2795153 -8.3881912 1.6752247 0
-8.1156731 -8.387991 1.701547 0
-7.9290476 -8.3888302 1.6858746 0
-7.7071466 -8.3877716 1.6874516 0
-7.4564543 -8.389864 1.7062063 0
-7.2755814 -8.3903503 1.6795582 0
-7.1100883 -8.3894043 1.6904732 0
-6.9371667 -8.3906803 1.6646748 0
-6.7089586 -8.3896503 1.6465478 0
-6.498498 -8.3911476 1.6665108 0
-6.3213606 -8.3890123 1.6525089 0
-6.0889149 -8.3896303 1.6345704 0
-5.9011545 -8.3887615 1.6200665 0
-5.7023172 -8.391119 1.6051258 0
-4.9273987 -8.3887291 1.7898568 0
-4.683949 -8.3870478 1.7628067 0
-4.5168948 -8.3876705 1.7445848 0
-4.2855992 -8.3865852 1.7194225 0
-4.1289234 -8.38694 1.7553759 0
-3.8745868 -8.3870068 1.6943069 0
-3.6940951 -8.3846893 1.6859682 0
-3.5108933 -8.3851538 1.7016013 0
-3.2234769 -8.3855085 1.6803024 0
-3.020957 -8.3861523 1.6657605 0
-2.8224769 -8.3859777 1.6517369 0
-2.6286635 -8.3859911 1.6383973 0
4.3175955 -8.3313866 1.6869432 0
4.4870434 -8.3755884 1.6775467 0
4.6769686 -8.3759708 1.6975975 0
4.8899741 -8.3752537 1.6965965 0
5.1021414 -8.3747883 1.6947764 0
5.2924042 -8.3739147 1.695183 0
5.4950891 -8.3751783 1.7067263 0
5.6915016 -8.3743448 1.7197018 0
5.8950057 -8.3725653 1.7238597 0
6.0915737 -8.3742647 1.726437 0
6.2968845 -8.3725996 1.7431614 0
6.4909501 -8.3744202 1.7356151 0
6.7189341 -8.3744669 1.7318114 0
6.8988681 -8.3751802 1.7183988 0
7.0950694 -8.3745279 1.7061902 0
7.2926126 -8.3719835 1.6889501 0
7.499588 -8.3158884 1.703848 0
4.2807527 -8.1297894 1.6817675 0
7.5444279 -8.1047134 1.6950145 0
-8.6498327 -7.9588604 1.7429934 0
-8.4905519 -7.8733315 1.7008842 0
4.2823143 -7.9386168 1.6776342 0
7.5473375 -7.8904181 1.7343408 0
-8.2146759 -7.7073641 1.6863587 0
4.2792907 -7.7448378 1.7092173 0
7.5455894 -7.6985674 1.6976588 0
-7.8093834 -7.4728341 1.6336156 0
-7.7384968 -7.4234552 1.7794918 0
4.2800241 -7.5070844 1.7040871 0
7.5470395 -7.4790511 1.6807282 0
-7.4090981 -7.2442183 1.7529678 0
4.2793818 -7.2866454 1.7019045 0
7.5466766 -7.2809067 1.6568701 0
-7.3431511 -7.1953897 1.7250718 0
-7.0506306 -7.0416107 1.6523428 0
4.2817616 -7.1118426 1.6865164 0
7.545413 -7.0807877 1.6854439 0
-6.9697008 -6.9803057 1.6737052 0
-6.6472182 -6.8038111 1.646456 0
4.283926 -6.93013 1.6641133 0
7.5445695 -6.878871 1.7359987 0
-6.6185884 -6.7781024 1.6254314 0
4.2833343 -6.6797233 1.6847721 0
7.5463614 -6.7056212 1.7039477 0
-6.2386246 -6.5671778 1.7897671 0
4.283484 -6.4431748 1.7415743 0
7.5475311 -6.5027308 1.6895245 0
-14.910486 -6.3052683 1.7660803 0
-6.0741954 -6.226295 1.789169 0
-5.9462538 -6.2756538 1.7574003 0
4.2829924 -6.2658772 1.6942769 0
7.5480633 -6.2974944 1.6565343 0
-14.914153 -6.1572838 1.7615672 0
-6.7536635 -6.0369787 1.6062281 0
-6.517149 -6.1031122 1.7928399 0
-6.2659898 -6.1691031 1.7670227 0
-6.1625948 -6.1974435 1.7565606 0
4.2841086 -6.0591922 1.6360151 0
7.5443416 -6.1145363 1.6859363 0
-14.913686 -5.9531813 1.7549114 0
-7.5060749 -5.832613 1.6730568 0
-7.3147221 -5.8850179 1.6551633 0
-7.1219168 -5.9362497 1.6376839 0
-6.9254036 -5.9881816 1.6196502 0
7.5465217 -5.8411889 1.7409405 0
-14.914706 -5.7175078 1.7577935 0
-8.2954006 -5.6228294 1.7474432 0
-8.1128521 -5.6712017 1.7300885 0
-7.9124231 -5.7243414 1.7112496 0
-7.6977749 -5.7826004 1.6911315 0
7.5450668 -5.6651053 1.7375975 0
-14.915059 -5.5481815 1.7429442 0
-9.022562 -5.4267135 1.6190785 0
-8.870882 -5.4703593 1.7002352 0
-8.6870852 -5.5190139 1.7821183 0
-8.4822369 -5.5733452 1.7653003 0
7.5462546 -5.5011401 1.7043253 0
-14.913091 -5.3462281 1.7367482 0
-9.8101816 -5.2170811 1.6849756 0
-9.7043304 -5.2470551 1.6761099 0
-9.5128088 -5.2961082 1.65991 0
-9.2221527 -5.3718982 1.6355419 0
7.5471873 -5.2846684 1.6535479 0
-14.912066 -5.0861764 1.7176203 0
7.5439639 -5.0936327 1.677581 0
-14.913452 -4.9090385 1.7245476 0
7.5430722 -4.8754821 1.6551417 0
-14.914665 -4.7280531 1.7201047 0
7.5453491 -4.6651592 1.7743024 0
-14.913247 -4.5109434 1.7143826 0
7.5431867 -4.5112424 1.7267308 0
-14.913123 -4.2946873 1.7089857 0
7.5382037 -4.2745028 1.7453928 0
-14.914437 -4.0861206 1.689999 0
7.5392036 -4.0976381 1.7122914 0
-14.91537 -3.9000731 1.6998131 0
7.5424304 -3.9145432 1.6723458 0
-14.915769 -3.7568521 1.6963518 0
7.5363255 -3.7011619 1.7049689 0
-14.91396 -3.57796 1.6920419 0
7.5351086 -3.5014637 1.6823702 0
-14.915482 -3.3103945 1.7028283 0
7.536303 -3.3022907 1.6612678 0
-14.912369 -3.1326063 1.6832023 0
7.5363946 -3.0940013 1.6402798 0
-14.91419 -2.9728045 1.6801376 0
7.537179 -2.8916414 1.6211418 0
-14.916333 -2.7067854 1.6931423 0
7.5425658 -2.776675 1.6087025 0
-14.915712 -2.5295069 1.6724564 0
7.5497756 -2.5096111 1.7984816 0
-14.913226 -2.3345819 1.6689091 0
7.5404854 -2.2875695 1.786792 0
-14.911949 -2.1752734 1.6661465 0
7.5363922 -2.0989966 1.7718784 0
-11.745359 -1.9524825 1.7852826 0
-11.587605 -1.8631012 1.7683442 0
7.5435352 -1.9054908 1.7569596 0
-11.433817 -1.7751998 1.7518867 0
-11.337971 -1.7175456 1.7416408 0
-11.188204 -1.6324316 1.7257428 0
7.5392442 -1.6934381 1.7670398 0
-11.046362 -1.5486078 1.7107184 0
-10.903259 -1.4664369 1.6956577 0
-4.1306629 -1.5542476 1.6777589 0
-3.6899171 -1.4133961 1.6660364 0
-3.49825 -1.4104145 1.6709487 0
-3.3218014 -1.409629 1.6893036 0
-3.0981266 -1.4128795 1.7303362 0
-2.9369998 -1.413295 1.7632754 0
-2.7319984 -1.4136708 1.7196617 0
-2.5134275 -1.4370078 1.674592 0
-2.3193626 -1.4134694 1.6396065 0
-2.0796437 -1.4170387 1.6023256 0
-1.8129828 -1.4174938 1.7755269 0
-1.690702 -1.4137839 1.7622421 0
-1.5050582 -1.4166722 1.7141701 0
-1.2823424 -1.4155446 1.6593866 0
-1.1269521 -1.4605088 1.6747783 0
7.5383549 -1.501289 1.7472396 0
-3.9810262 -1.3111832 1.6517127 0
7.5382099 -1.304557 1.7374388 0
-3.9887576 -1.1141384 1.6656277 0
7.5390821 -1.1063482 1.7293177 0
-3.9890366 -0.92453521 1.6586132 0
7.537024 -0.89775789 1.7139968 0
-3.9888284 -0.72891563 1.6698314 0
7.5385976 -0.69814366 1.716712 0
-3.9888802 -0.49835521 1.6697872 0
7.5374942 -0.50135869 1.7127165 0
-3.9901299 -0.28862169 1.6626545 0
7.5387254 -0.30559757 1.7109261 0
-3.9890199 -0.095541492 1.6597202 0
7.5381584 -0.10419822 1.7101892 0
-3.9899564 0.096195363 1.6667799 0
7.537077 0.10335177 1.7109772 0
-3.9902332 0.29006493 1.667232 0
7.5377736 0.2987937 1.7137407 0
-3.9912715 0.50124604 1.661296 0
7.5381589 0.49487796 1.7179669 0
-3.9918461 0.7105822 1.6772864 0
7.5376587 0.69575244 1.7236686 0
-3.9912093 0.90603644 1.6729997 0
7.5364914 0.89404744 1.7306663 0
-3.9918368 1.1060634 1.6801907 0
7.5362544 1.0942298 1.7395219 0
-3.9937713 1.2938688 1.6909369 0
7.5375667 1.3334253 1.7212167 0
-3.9939182 1.4866214 1.6866813 0
7.5380306 1.5399861 1.732849 0
-3.9934282 1.6901858 1.6938699 0
7.5392904 1.7377077 1.7456657 0
-3.9927845 1.8442074 1.7062749 0
7.5365319 1.8978428 1.7065059 0
7.5363984 2.0740683 1.7197514 0
7.5366998 2.2583385 1.7106134 0
7.5411911 2.4583859 1.7227529 0
7.5310354 2.6959467 1.6441922 0
7.5286217 2.8786383 1.6510357 0
1.7850752 3.0997086 1.6101904 0
5.3148785 3.0906699 1.6151395 0
5.5096684 3.0893624 1.6592147 0
5.716938 3.0885332 1.7066333 0
5.912447 3.0885866 1.7518151 0
6.0644569 3.0967681 1.691131 0
6.2257338 3.1035352 1.6808414 0
6.4565601 3.0983851 1.6535392 0
6.6517315 3.0984375 1.6988171 0
6.9169731 3.0975716 1.7231889 0
7.0975008 3.1000144 1.6970505 0
7.2661572 3.0948789 1.7431301 0
7.4720745 3.0715606 1.6834092 0
-14.918842 4.5024223 1.755671 0
-4.3146396 4.9994211 1.7682602 0
-3.9796214 4.9997272 1.7254707 0
-14.919952 5.105495 1.710644 0
-4.8487959 5.0105205 1.6933867 0
-4.6895909 5.0117855 1.6930754 0
-4.4748487 5.0110173 1.7022653 0
-4.2757421 5.0108809 1.6915482 0
-4.0963273 5.0100965 1.6859534 0
-3.8903584 5.010973 1.7102087 0
-3.6893368 5.0109777 1.6967709 0
-3.4934933 5.0111575 1.6985657 0
-3.3034461 5.0086694 1.6942706 0
-3.0944312 5.0106268 1.6977354 0
-2.907053 5.011776 1.7194721 0
-2.6918607 5.0120778 1.6815526 0
-2.5015249 5.0104814 1.6686169 0
-2.2942529 5.0095367 1.6605375 0
-2.0842924 5.0116544 1.6781669 0
-1.8784425 5.0110526 1.6954173 0
-1.6744092 5.0105958 1.7345864 0
-1.472888 5.0097594 1.7075423 0
-1.2699159 5.0112109 1.7367076 0
-1.0892003 5.0126781 1.7268677 0
-0.88852882 5.011951 1.6961333 0
-0.70839834 5.011126 1.6937774 0
-0.48774773 5.0144472 1.7042915 0
-0.31196672 5.015367 1.6765255 0
-0.092936121 5.0223966 1.6793276 0
0.02424401 5.0925045 1.6948836 0
-14.921485 5.3269887 1.7700645 0
0.036796212 5.2432919 1.6850207 0
-14.920238 5.5152597 1.732512 0
0.033848524 5.5658965 1.6391715 0
-14.927825 5.6973495 1.714048 0
0.033873022 5.7165527 1.6526594 0
-14.922884 5.8876305 1.7297019 0
0.031768158 5.9024229 1.6636429 0
-14.926842 6.089447 1.7316298 0
0.031030893 6.1193528 1.7317933 0
-14.925196 6.2986727 1.7500508 0
0.02953881 6.2870865 1.7759094 0
-14.928932 6.5002246 1.7513171 0
0.032028198 6.5703311 1.6761497 0
-14.930386 6.7164087 1.7715658 0
0.034137815 6.7533803 1.6566012 0
-14.929881 6.9298553 1.7520133 0
0.031896394 6.9148889 1.6684666 0
-14.930984 7.1381254 1.7618116 0
-14.93109 7.3478203 1.771841 0
-14.933068 7.5602932 1.7824063 0
3.9224987 7.5288429 1.6220504 0
-14.928209 7.7614899 1.6993572 0
3.9215744 7.6903076 1.6497201 0
-14.922834 7.9928842 1.6182147 0
3.9217529 7.8938203 1.6848748 0
3.9224441 8.1071825 1.7219644 0
-14.921511 8.2026787 1.6292262 0
3.9237056 8.2933826 1.7545296 0
-14.92569 8.5071535 1.6459746 0
3.9224331 8.4816017 1.7873954 0
-14.921095 8.6925268 1.6174133 0
-14.751051 8.8121624 1.6267467 0
-14.499435 8.8089962 1.6312009 0
-14.141478 8.8103189 1.6957961 0
-13.92958 8.8131542 1.7703443 0
-13.662164 8.813446 1.765174 0
-13.445318 8.8128605 1.7570214 0
-13.292212 8.8116035 1.7213105 0
-13.112356 8.8117762 1.7659839 0
-12.924215 8.8109627 1.7521638 0
-12.686342 8.8119898 1.7333953 0
-12.47979 8.8116703 1.7196448 0
-12.288851 8.811924 1.7057157 0
-12.098357 8.8115921 1.6918693 0
-11.897607 8.811141 1.6773168 0
-11.69558 8.8121195 1.6543537 0
-11.481003 8.8125401 1.6656604 0
-11.297276 8.8120928 1.6598372 0
-11.061439 8.8139048 1.6866547 0
-10.863942 8.8150558 1.6848545 0
-10.669449 8.8136015 1.7465675 0
-10.480536 8.8128033 1.7276974 0
-10.29784 8.8137589 1.7097176 0
-10.081227 8.813118 1.6884214 0
-9.8730001 8.8153515 1.668354 0
-9.7270164 8.8146992 1.7224236 0
-9.5165462 8.8155985 1.7257396 0
-9.2662811 8.8126307 1.6101774 0
-0.43469119 8.8191042 1.7211889 0
-0.28621459 8.820303 1.7185224 0
-0.089010715 8.8180723 1.7149112 0
0.14650573 8.816864 1.7084646 0
0.32792807 8.8180752 1.7079039 0
0.52380216 8.8170338 1.707773 0
0.72732508 8.8178244 1.7088399 0
0.93022883 8.817215 1.710526 0
1.094431 8.8152828 1.7124174 0
1.3200136 8.8128233 1.7166889 0
1.5256687 8.8151236 1.7224145 0
1.7325034 8.8149853 1.7285807 0
1.9250076 8.8144751 1.7350599 0
2.1188376 8.8122368 1.7420295 0
2.316745 8.8183975 1.7515167 0
2.5144496 8.8153429 1.7600478 0
2.7148533 8.8136559 1.7697456 0
2.8843038 8.8139009 1.778863 0
3.1234751 8.8103924 1.7919424 0
-9.2774906 -8.388052 1.8860445 0
-9.1060467 -8.3450432 1.8737879 0
-8.9358158 -8.3862162 1.9018979 0
-8.704936 -8.3883877 1.9103127 0
-8.5321512 -8.3860159 1.898271 0
-8.3198299 -8.3853369 1.8822708 0
-8.0949364 -8.3857098 1.8881991 0
-7.9200106 -8.3847065 1.8706928 0
-7.7110267 -8.382678 1.8440775 0
-7.5337186 -8.3889122 1.8501729 0
-7.3700719 -8.3880148 1.834506 0
-6.8165846 -8.3871145 1.9913318 0
-6.6671453 -8.3893518 1.9901794 0
-6.4973598 -8.3892651 1.9700701 0
-6.2542477 -8.3900824 1.9581987 0
-6.0927987 -8.3898869 1.948523 0
-5.9122915 -8.3896914 1.9288311 0
-5.6564479 -8.3882895 1.9010547 0
-5.454865 -8.3913422 1.932752 0
-5.2711706 -8.3901606 1.8956885 0
-5.1253123 -8.3907213 1.880354 0
-4.9006419 -8.3901253 1.9281502 0
-4.678443 -8.3894749 1.9060147 0
-4.5239415 -8.3901558 1.8909004 0
-4.346097 -8.3898449 1.8379614 0
4.3445215 -8.3566799 1.9203061 0
4.4949641 -8.374011 1.9012312 0
4.6978045 -8.374754 1.9138412 0
4.9070344 -8.3739214 1.9111714 0
5.1217489 -8.3747225 1.9136462 0
5.3216658 -8.3732862 1.9165257 0
5.5062265 -8.3751307 1.9268674 0
5.6992922 -8.3742409 1.941955 0
5.8995872 -8.3706188 1.900933 0
6.0983496 -8.3714514 1.9312797 0
6.3211007 -8.3712816 1.904708 0
6.5365419 -8.3714876 1.8821688 0
6.7091799 -8.3713913 1.8691418 0
6.9049749 -8.3694859 1.8770326 0
7.1041598 -8.3694954 1.8908795 0
7.3016281 -8.3718004 1.8873651 0
7.4987555 -8.3151855 1.8877347 0
-8.7719193 -8.0309973 1.9435959 0
4.2805734 -8.1191988 1.9204057 0
7.5460052 -8.1148863 1.8874891 0
-8.6125431 -7.9276748 1.8998742 0
4.2785764 -7.9401689 1.8723172 0
7.5444613 -7.9264278 1.902826 0
-8.2893925 -7.7518888 1.8760405 0
-8.1594267 -7.6664424 1.8374643 0
4.2820439 -7.7178431 1.8496406 0
7.5439382 -7.6931019 1.9382306 0
-7.8324647 -7.4885592 1.8121603 0
4.2784147 -7.4703159 1.8656745 0
7.5444698 -7.4985838 1.9091707 0
-7.5137949 -7.3020287 1.9884155 0
4.2825255 -7.2915931 1.9746956 0
7.5438752 -7.3168263 1.8886253 0
-7.0573463 -7.0390024 1.9172838 0
4.2836995 -7.0727687 1.9135599 0
7.5470586 -7.1016617 1.8587754 0
-6.9874897 -6.9932818 1.9980986 0
4.2834835 -6.8484159 1.8531498 0
7.5459442 -6.9106622 1.8345209 0
-6.6439862 -6.797864 1.8962531 0
-6.3396454 -6.6190577 1.8876243 0
4.2872343 -6.6797791 1.8324192 0
7.5444927 -6.6624808 1.9323477 0
7.5456262 -6.4748964 1.9308717 0
-6.0576324 -6.2215295 1.8413538 0
-5.9152818 -6.2780585 1.8846664 0
7.5442457 -6.2738519 1.8815095 0
-6.838871 -6.0118799 1.8630681 0
-6.6886625 -6.0537705 1.9069256 0
-6.490386 -6.1069245 1.911615 0
-6.3005233 -6.1579733 1.8733895 0
-6.1520824 -6.197298 1.9909322 0
7.5475655 -6.0783134 1.8461519 0
-7.6011295 -5.813395 1.9071221 0
-7.4677396 -5.8440671 1.9299033 0
-7.2670069 -5.8984528 1.9084244 0
-7.0689754 -5.9505663 1.887324 0
-6.9521151 -5.9840755 1.9889163 0
7.5484385 -5.9299216 1.8292403 0
-8.3381424 -5.6156564 1.98744 0
-8.0935307 -5.6818485 1.9606037 0
-7.8975067 -5.734406 1.9392139 0
-7.6864448 -5.7844396 1.9659637 0
7.5455742 -5.7978754 1.8330249 0
-9.0677128 -5.4171371 1.8217245 0
-8.8701553 -5.4671054 1.8123527 0
-8.7710838 -5.4931364 1.8022344 0
7.5344977 -5.4889994 1.9580048 0
-9.8070488 -5.2198715 1.8943392 0
-9.6952057 -5.2486 1.8832839 0
-9.4978895 -5.3028316 1.8593718 0
-9.2727184 -5.3625751 1.8416715 0
7.5378518 -5.2901607 1.9139301 0
-9.9225407 -5.185926 1.9209453 0
7.5379753 -5.0910249 1.8794748 0
7.5394802 -4.8838863 1.8381072 0
7.533483 -4.7000694 1.839985 0
7.530283 -4.4283333 1.821327 0
7.5516677 -4.0461011 1.9410654 0
7.537962 -3.9192693 1.9734259 0
7.5354328 -3.7193608 1.9545361 0
7.5375886 -3.5030327 1.9219621 0
7.5388112 -3.3069065 1.899467 0
7.5373969 -3.0999386 1.8765188 0
7.5385551 -2.8991325 1.8560134 0
7.5383034 -2.7068033 1.8372091 0
7.5339046 -2.4742749 1.8323437 0
7.5339618 -2.3253331 1.8315188 0
7.5357275 -2.1673133 1.8205785 0
-11.69224 -1.9267454 1.9657006 0
7.537693 -1.967967 1.8079332 0
-11.459309 -1.7889478 1.9369919 0
-11.299232 -1.6993468 1.9174581 0
-11.121666 -1.584541 1.9906418 0
-10.972498 -1.4997069 1.9728804 0
-3.8495522 -1.5076007 1.9059881 0
-3.7347465 -1.4140636 1.9049346 0
-3.5254698 -1.4143084 1.8982954 0
-3.3074355 -1.4137692 1.8420858 0
-3.1337154 -1.4140012 1.8186054 0
-2.6414561 -1.4214295 1.9911973 0
-2.4696374 -1.4163021 1.9425241 0
-2.2700942 -1.4164641 1.8994198 0
-2.0574303 -1.4161766 1.8477007 0
-1.8598928 -1.4143784 1.8125634 0
-3.9877193 -1.3128765 1.9408475 0
-3.991806 -1.1180295 1.955227 0
-3.9922757 -0.92362434 1.9465034 0
7.5482101 -0.91204828 1.9967283 0
-3.9931102 -0.71526182 1.9230262 0
7.5522718 -0.71265095 1.9918594 0
-3.9935668 -0.50285488 1.9398935 0
7.5492744 -0.51356834 1.9865766 0
-3.9936361 -0.30619457 1.928215 0
7.5494013 -0.31545788 1.9834876 0
-3.9938502 -0.12589312 1.9358332 0
7.5511465 -0.11783989 1.9822464 0
-3.9934881 0.095120952 1.9154378 0
7.5487785 0.092855655 1.9813222 0
-3.9939861 0.28825003 1.9320517 0
7.5512447 0.29057032 1.9831022 0
-4.0004697 0.58307123 1.9363197 0
-3.9938645 0.4898423 1.9260075 0
7.5485468 0.48848376 1.984946 0
-3.9943256 0.70561624 1.9323659 0
7.5497065 0.68725079 1.9891716 0
-4.0007443 0.88676071 1.9438167 0
-3.9938173 0.89206707 1.9370703 0
7.5480742 0.8867234 1.9941047 0
-4.00144 1.1298907 1.9207004 0
-3.9945881 1.0970803 1.9572248 0
-4.0018396 1.2930532 1.9282714 0
-3.9939961 1.3001425 1.9347057 0
7.5327621 1.2227221 1.8075091 0
-4.0019469 1.4800631 1.9279424 0
-3.9946253 1.4876103 1.9505755 0
7.5302095 1.48422 1.8250811 0
-4.0019054 1.7233069 1.9498763 0
-3.9942639 1.7045261 1.9591709 0
7.5294185 1.6408142 1.8369628 0
-3.9963355 1.8613106 1.9480095 0
7.5305123 1.8245374 1.8526863 0
7.5313745 2.0235074 1.8710046 0
7.5265083 2.3065224 1.846918 0
7.5264931 2.5092678 1.8688068 0
7.5344529 2.695708 1.8627361 0
7.5291929 2.886373 1.8741846 0
6.3115168 3.0895534 1.8451707 0
6.5111666 3.0894496 1.8922461 0
6.6916122 3.08969 1.9350722 0
6.8743477 3.097899 1.9064415 0
7.0383434 3.1069777 1.8737148 0
7.2320924 3.1055856 1.8666098 0
7.4780388 3.0693607 1.9113739 0
-14.918085 4.7323618 1.8188121 0
-14.916708 4.9081488 1.8220388 0
-14.919075 5.0857706 1.8258251 0
-4.8500781 5.0093904 1.9161371 0
-4.7187238 5.008606 1.9212208 0
-4.4883585 5.0089889 1.875823 0
-4.2904582 5.0090885 1.9086097 0
-4.0952387 5.0098858 1.8879108 0
-3.8922458 5.0092077 1.8844675 0
-3.6934252 5.0086541 1.8820958 0
-3.5029137 5.0098929 1.8651791 0
-3.2797432 5.0101695 1.8823503 0
-3.1004903 5.0128293 1.9352515 0
-2.8820262 5.0128698 1.915099 0
-2.6846085 5.0117445 1.8991364 0
-2.4723101 5.0115728 1.8919251 0
-2.292161 5.0109921 1.9125235 0
-2.094301 5.0119147 1.9007299 0
-1.8743373 5.0099387 1.8883288 0
-1.6741941 5.0140014 1.868579 0
-1.5087197 5.0125022 1.8399857 0
-1.2894074 5.0123677 1.8947541 0
-1.0376871 5.0119009 1.9450812 0
-0.86115396 5.0114784 1.9183012 0
-0.68972439 5.0124254 1.922695 0
-0.48153913 5.0104542 1.9303489 0
-0.28248844 5.0111175 1.8807534 0
-0.079718433 5.0293689 1.9228588 0
0.021959305 5.0718341 1.978112 0
-14.918427 5.299058 1.8303008 0
0.031406879 5.3776116 1.8279815 0
-14.920643 5.5268807 1.8197595 0
0.03181386 5.5608487 1.8765842 0
-14.920342 5.7287884 1.8269024 0
0.030365944 5.7574639 1.9293131 0
-14.920717 5.9139261 1.8338935 0
0.02952826 5.9377089 1.9778845 0
-14.920835 6.0999832 1.8410618 0
-14.922632 6.2982998 1.8368089 0
0.02882266 6.3632493 1.8279475 0
-14.926368 6.5212655 1.8362308 0
0.029324472 6.5062451 1.856272 0
-14.923406 6.7260242 1.8510317 0
0.027683338 6.7419963 1.8924847 0
-14.923607 6.9307137 1.85272 0
0.026849508 6.9194756 1.9393839 0
-14.923624 7.1165328 1.8551939 0
-14.923759 7.2988167 1.8639729 0
-14.9224 7.4933176 1.8726406 0
3.9218962 7.5569668 1.9370648 0
-14.924002 7.6857424 1.8745083 0
3.9229119 7.7066422 1.9677622 0
-14.92469 7.8944077 1.8988259 0
-14.923542 8.0797682 1.8998573 0
-14.926148 8.2710495 1.8878864 0
-14.926252 8.4664974 1.8917205 0
-14.926662 8.6615162 1.8802588 0
3.9215827 8.6774883 1.8217678 0
-14.683148 8.8124504 1.8838634 0
-14.47836 8.8108025 1.8865533 0
-14.306778 8.8073387 1.8903066 0
-14.08535 8.8081989 1.8743145 0
-13.887663 8.8089056 1.8598865 0
-13.711052 8.8078241 1.8627634 0
-13.533768 8.8076515 1.8497944 0
-13.305984 8.8068295 1.8331314 0
-13.075893 8.810853 1.9254892 0
-12.890127 8.8067274 1.9418341 0
-12.674728 8.8074732 1.9124721 0
-12.486651 8.8075113 1.8964764 0
-12.300949 8.8086977 1.8915267 0
-12.062034 8.8080578 1.8966906 0
-11.883058 8.808671 1.8794106 0
-11.671027 8.8128338 1.8482525 0
-11.462545 8.8135586 1.8268621 0
-11.253599 8.809679 1.896488 0
-10.508545 8.8145761 1.8638998 0
-10.384443 8.8146324 1.8521727 0
-10.1827 8.8158283 1.8333135 0
-9.9806404 8.8134623 1.8142312 0
-0.15581691 8.8213987 1.8457904 0
0.016960442 8.822834 1.8425003 0
0.2205162 8.8222799 1.838941 0
0.40761369 8.8222427 1.8365697 0
0.60965514 8.8233099 1.8351086 0
0.81141281 8.8212996 1.8338792 0
1.0128623 8.8222322 1.8341765 0
1.2143033 8.8219042 1.8350806 0
1.4160488 8.8235388 1.8373097 0
1.618181 8.8238621 1.8401399 0
1.8209543 8.8239241 1.8438429 0
2.0245156 8.8236885 1.8483728 0
2.2135532 8.8248701 1.8536786 0
2.4195266 8.8255348 1.8602108 0
2.7073574 8.8263893 1.8708537 0
3.3339047 8.8133678 1.8054334 0
3.5291862 8.8144999 1.8183583 0
3.72686 8.8138189 1.8318192 0
3.8721092 8.8125763 1.8419718 0
-9.317091 -8.3718834 2.010469 0
-9.1483364 -8.3888474 2.0064545 0
-7.5378485 -8.3873663 2.0710886 0
-7.302197 -8.3887415 2.0450072 0
-7.1141558 -8.3895807 2.0339069 0
-6.9060397 -8.3887672 2.0264723 0
-6.7005882 -8.3882914 2.1051083 0
-6.5112176 -8.3922415 2.0949345 0
-6.3412952 -8.3898544 2.094347 0
-6.1148295 -8.3906078 2.0899937 0
-5.8915582 -8.3923311 2.0547967 0
-5.6775799 -8.3904495 2.0439787 0
-5.4797974 -8.3849192 2.0581694 0
-5.2524109 -8.3870497 2.0349483 0
-5.0259266 -8.3851051 2.0115838 0
-3.8241057 -8.3841219 2.1376038 0
-3.7220604 -8.3911142 2.1019657 0
-3.5108829 -8.3817081 2.1057281 0
-3.2372136 -8.3827858 2.0790911 0
-3.0351996 -8.3843021 2.0600302 0
-2.8352771 -8.3826694 2.0410788 0
-2.641664 -8.3831711 2.0234649 0
4.3277979 -8.338047 2.0442004 0
4.5272222 -8.3754454 2.0606556 0
4.7124825 -8.3767796 2.0605855 0
4.8961802 -8.3752403 2.062783 0
5.1089621 -8.3733444 2.0603614 0
5.3018746 -8.3747196 2.0748982 0
5.5190496 -8.3743773 2.0790067 0
5.7098279 -8.3737488 2.0817168 0
5.9029694 -8.3723145 2.0991549 0
6.0873098 -8.3725367 2.0645239 0
6.3059511 -8.3690777 2.0666606 0
6.4996581 -8.3722792 2.0592003 0
6.6918221 -8.3713274 2.0694027 0
6.8798304 -8.3698816 2.0836241 0
7.0832329 -8.3713961 2.0936844 0
7.2734008 -8.3701534 2.1124542 0
7.4902639 -8.3301334 2.1004095 0
4.2728591 -8.1888981 2.1865511 0
7.5441885 -8.1053371 2.0934474 0
4.281858 -7.8699841 2.13359 0
7.5447969 -7.9287944 2.0505638 0
4.2823062 -7.6403432 2.0704954 0
7.5439453 -7.7122688 2.0583565 0
-7.9949322 -7.5805664 2.0635111 0
-7.7205725 -7.416244 2.1231973 0
4.2872481 -7.4449615 2.0502782 0
7.5435476 -7.4701667 2.1675861 0
-7.3468847 -7.2000613 2.0593619 0
7.5451078 -7.3110151 2.1427562 0
7.5451283 -7.1185689 2.0954893 0
-6.8974848 -6.9515696 2.0675094 0
7.5474696 -6.8962326 2.0471916 0
-6.5931602 -6.7681527 2.1035967 0
7.536304 -6.6928701 2.0970144 0
-6.2598705 -6.5731058 2.0334003 0
7.5242329 -6.4408941 2.1454034 0
7.5340085 -6.2664547 2.1355886 0
-6.7296886 -6.0417504 2.0597582 0
-6.5086575 -6.1017704 2.0333741 0
-6.3273287 -6.1498337 2.0116229 0
7.5341949 -6.0577798 2.0922542 0
-7.6136303 -5.8059654 2.0549831 0
-7.4606724 -5.8460774 2.0394428 0
-7.2390242 -5.9063044 2.0172718 0
-7.0928478 -5.9450173 2.0026898 0
-6.9646544 -5.9813967 2.0910718 0
7.5351171 -5.8476357 2.0488896 0
-8.2782907 -5.622858 2.0561526 0
-8.055912 -5.6832542 2.0314963 0
-7.8815813 -5.7303815 2.0122805 0
-7.7516923 -5.7678738 2.0454979 0
7.5351896 -5.6452217 2.0074892 0
-8.897337 -5.4599104 2.1261344 0
-8.7351866 -5.5040894 2.0822217 0
-8.4983721 -5.5672679 2.0555773 0
7.5341439 -5.3929186 2.1988361 0
7.531321 -5.1039672 2.170392 0
7.5281062 -4.9293313 2.1569157 0
7.5314264 -4.7336626 2.11813 0
7.5292649 -4.53092 2.091728 0
7.5303926 -4.3069792 2.051919 0
7.5321646 -4.1052008 2.0229378 0
7.5501485 -3.2325516 2.1623878 0
7.5498896 -3.1086936 2.1494057 0
7.5479517 -2.9094758 2.1289575 0
7.5490046 -2.7149889 2.1108444 0
7.5493517 -2.5087011 2.092654 0
7.5507793 -2.3060169 2.0763121 0
7.5491695 -2.1054482 2.0606377 0
7.5498257 -1.9082332 2.0470331 0
7.5498343 -1.7132692 2.0346584 0
-3.7542257 -1.5557357 2.1109664 0
-3.0462832 -1.416806 2.0950732 0
-2.8490582 -1.4217054 2.0413616 0
-2.7709804 -1.4124514 2.0346363 0
7.5482364 -1.5201405 2.0232208 0
-3.9946225 -1.3121094 2.0120535 0
7.5489826 -1.3158277 2.0131197 0
-3.9965301 -1.0682826 2.0660727 0
7.5493879 -1.1132593 2.0043871 0
-3.9963045 -0.86789989 2.0657735 0
-3.9957552 -0.68365884 2.0663018 0
-4.0002408 -0.55772996 2.1139941 0
-3.9971397 -0.46417698 2.0533612 0
-3.9949865 -0.28539029 2.0371847 0
-3.9957323 -0.068362802 2.0534797 0
-3.9961834 0.086386696 2.0440869 0
-3.9969947 0.31458515 2.0521541 0
-3.9985113 0.4988367 2.0595803 0
-3.9977157 0.7179898 2.0437608 0
-3.9986057 0.9312315 2.0584002 0
-4.0006194 1.1086357 2.082334 0
-3.9934278 1.0755904 2.0589745 0
7.549809 1.0877999 2.0013273 0
-3.9974861 1.2832041 2.0778563 0
7.5493603 1.2901562 2.0094604 0
-3.997087 1.4904141 2.08707 0
7.5492268 1.4943253 2.0191293 0
-4.0000076 1.6738266 2.0835238 0
-3.9975019 1.6848041 2.1187708 0
7.5503221 1.6870852 2.0298672 0
-4.0001497 1.8370548 2.094841 0
-3.9974387 1.832872 2.0887208 0
7.5500894 1.8816694 2.0416057 0
7.5509143 2.0789211 2.055027 0
7.548604 2.2779477 2.0690312 0
7.5500937 2.4810781 2.0855637 0
7.5503392 2.687109 2.1032956 0
7.5504084 2.8966885 2.1225798 0
7.1466155 3.090405 2.0439615 0
7.3206382 3.0902646 2.085865 0
7.5050468 3.0605857 2.1275022 0
-4.6587958 5.0109096 2.0477521 0
-4.4518147 5.0111523 2.0274031 0
-4.2940392 5.0126891 2.0575955 0
-4.0708723 5.0130625 2.04704 0
-3.8533297 5.0140815 2.0432255 0
-3.6190348 5.0176082 2.0504463 0
-3.4931386 5.0091143 2.0323162 0
-3.2969027 5.0154634 2.0549388 0
-3.1270292 5.0094881 2.0856047 0
-2.8783331 5.0100284 2.0510447 0
-2.6968586 5.0097961 2.0234523 0
-2.5270255 5.0069804 2.0052154 0
-2.0736153 5.0144339 2.0986843 0
-1.8381777 5.013556 2.0682933 0
-1.6599568 5.0100727 2.0583112 0
-1.4787849 5.0110946 2.0560796 0
-1.3053303 5.014091 2.0980992 0
-1.0934058 5.0154366 2.091151 0
-0.91664666 5.013638 2.0606692 0
-0.72048855 5.0148344 2.0385504 0
-0.51237839 5.0194707 2.0368106 0
-0.30163217 5.0193286 2.0121899 0
-0.058723927 5.027 2.1511192 0
0.031675816 5.2311554 2.0110617 0
0.02679944 6.1581984 2.0378323 0
0.026254416 6.3584847 2.0923891 0
-14.902044 7.347506 2.1108689 0
-14.902297 7.510222 2.1196635 0
-14.903135 7.7075963 2.1305938 0
-14.90123 7.9057021 2.1414773 0
3.9228127 7.8929138 2.0059891 0
-14.897367 8.1048994 2.1524282 0
3.9235623 8.1063023 2.0500848 0
-14.897369 8.2743301 2.1622853 0
3.9225974 8.2877283 2.0875928 0
3.9214921 8.4760914 2.1267009 0
-14.524032 8.8136253 2.1534486 0
-14.297156 8.8132524 2.1284776 0
-14.079089 8.8151999 2.1047211 0
-13.860585 8.8138275 2.0808029 0
-13.699048 8.8123703 2.0631533 0
-13.518959 8.8136177 2.0437443 0
-13.23882 8.813571 2.013551 0
-12.517207 8.8095684 2.0397758 0
-12.29115 8.8081064 2.0202436 0
-10.006294 8.8122253 2.1561477 0
-9.8698454 8.8151407 2.1395724 0
-9.6622972 8.8135796 2.1139123 0
-9.4618273 8.8142023 2.0895765 0
-9.2645826 8.8136673 2.0657325 0
-9.0575018 8.8147659 2.0411267 0
-8.8832827 8.8130178 2.0203342 0
-8.7285042 8.8121614 2.0020909 0
-0.42876601 8.8220329 2.0557542 0
-0.29623723 8.8209953 2.0517561 0
-0.08347559 8.8220015 2.0467625 0
0.15054968 8.8172855 2.0340366 0
0.32393801 8.8164711 2.0325437 0
0.51972759 8.8188267 2.0327308 0
0.72322589 8.8164272 2.0327888 0
0.92625958 8.8175163 2.0347099 0
1.098133 8.8167591 2.037024 0
1.3218722 8.8143244 2.0420105 0
1.5271511 8.8143234 2.0484748 0
1.7340796 8.8147306 2.0561247 0
1.9266638 8.8146439 2.0641034 0
2.1208053 8.813652 2.0728614 0
2.3174796 8.8150167 2.0831876 0
2.5153704 8.812849 2.0937166 0
2.7161012 8.8124523 2.1057303 0
2.9202564 8.8145552 2.1194417 0
3.1261976 8.8134842 2.1335208 0
3.3352761 8.8126097 2.1488152 0
3.4951768 8.8146582 2.1616981 0
4.3963108 -8.3781013 2.2373633 0
4.5817223 -8.3774414 2.2384658 0
4.7099519 -8.3734226 2.2389126 0
4.866003 -8.3764763 2.2424135 0
5.0717516 -8.3749685 2.2467175 0
