# .PCD v0.7 - Point Cloud Data file format
VERSION 0.7
FIELDS x y z intensity
SIZE 4 4 4 4
TYPE F F F F
COUNT 1 1 1 1
WIDTH 1402
HEIGHT 1
VIEWPOINT 0 0 0 1 0 0 0
POINTS 1402
DATA ascii
-1.2605919 0.11018691 -0.33175099 0
1.196515 0.17513461 -0.33116427 0
1.2845039 0.098112263 -0.33172879 0
1.400411 0.052907385 -0.33186296 0
1.6554551 0.087589219 -0.3319912 0
2.0179272 0.10289203 -0.3316901 0
2.5794334 0.08602795 -0.33158496 0
3.5603933 0.092896558 -0.33167917 0
5.721962 0.08061409 -0.33198252 0
-4.0243516 0.31370121 -0.25968504 0
-2.8165731 0.30367199 -0.33184341 0
-2.1520233 0.29161647 -0.33168897 0
-1.7319229 0.29490456 -0.33157083 0
-1.4412419 0.30354401 -0.33172259 0
-1.2321931 0.28865075 -0.33198476 0
-1.1985581 0.39828733 -0.33113661 0
1.1716753 0.30458394 -0.3316884 0
1.3570871 0.28548288 -0.33157742 0
1.6297159 0.30393961 -0.33185297 0
1.9922899 0.34076548 -0.3314935 0
2.0066519 0.25418165 -0.33185348 0
2.5671535 0.29045883 -0.33179483 0
3.5513239 0.28420812 -0.3316716 0
5.7161202 0.28045732 -0.33192056 0
-4.0205679 0.5128457 -0.26412737 0
-2.8006773 0.42333308 -0.33178911 0
-2.7898982 0.46183652 -0.331388 0
-2.1097286 0.51091743 -0.33171809 0
-1.6801227 0.50970775 -0.33162218 0
-1.4073813 0.43636209 -0.3317987 0
-1.3756645 0.52278149 -0.33166644 0
-1.1597002 0.49826449 -0.33147097 0
1.1064872 0.49689117 -0.33188275 0
1.3103534 0.49879217 -0.331613 0
1.5765842 0.51823789 -0.33172891 0
1.6065766 0.4149591 -0.33175811 0
1.9604889 0.50145036 -0.33175978 0
2.5380192 0.48743954 -0.33167416 0
3.5329878 0.47655246 -0.33172274 0
5.7062993 0.48025334 -0.33199412 0
-4.0208354 0.70059061 -0.21487007 0
-3.9849107 0.72233415 -0.33171722 0
-2.7381928 0.70911431 -0.33165944 0
-2.0507729 0.70804244 -0.33183673 0
-1.6250453 0.66695768 -0.33190748 0
-1.5775102 0.76418811 -0.331411 0
-1.2880903 0.70826524 -0.33192751 0
-1.0561914 0.68884742 -0.33171019 0
-0.98495996 0.78580618 -0.3315199 0
0.9662118 0.73910111 -0.33169043 0
1.0886189 0.68122208 -0.33186543 0
1.2376792 0.66629094 -0.33177307 0
1.5073345 0.69871181 -0.33172303 0
1.9049497 0.69159138 -0.3318494 0
2.4907236 0.69787776 -0.33162788 0
3.5004013 0.68795383 -0.33168367 0
5.6882229 0.67953366 -0.3319543 0
-3.9425976 0.91360438 -0.33166811 0
-2.6748912 0.91246283 -0.33167133 0
-2.0038948 0.82964009 -0.33181605 0
-1.9578823 0.92312217 -0.33149627 0
-1.4944704 0.91043645 -0.33152747 0
-1.2115436 0.83034444 -0.33175287 0
-1.1331849 0.93015122 -0.33179823 0
-0.88676977 0.89087105 -0.33173674 0
-0.77439213 0.98877764 -0.33164123 0
0.75405788 0.9602164 -0.33150849 0
0.86362344 0.86015511 -0.33185199 0
1.0890387 0.89435452 -0.33196169 0
1.3668932 0.95430255 -0.33178812 0
1.4329113 0.84600186 -0.33161995 0
1.787961 0.96465468 -0.33177528 0
1.8353868 0.86648589 -0.33183908 0
2.3978546 0.98024786 -0.33142069 0
2.4348946 0.88296193 -0.33167571 0
3.4557202 0.8957569 -0.33160779 0
5.6658096 0.87853259 -0.33202928 0
-3.8866253 1.1173072 -0.33166316 0
-2.6173372 1.0598149 -0.33160347 0
-2.5744388 1.1557512 -0.33160058 0
-1.8648857 1.0959054 -0.33177561 0
-1.7923594 1.1993148 -0.33098024 0
-1.416082 1.0299933 -0.33189213 0
-1.3381264 1.1235667 -0.33175373 0
-1.0326349 1.0377228 -0.33169064 0
-0.91183603 1.1401423 -0.33166027 0
-0.67847419 1.0529491 -0.33154172 0
-0.49148181 1.1474211 -0.33160073 0
-0.35435948 1.1945454 -0.33147696 0
0.3437835 1.1818936 -0.33165738 0
0.50264883 1.1185253 -0.33173928 0
0.69452101 1.0795602 -0.33173814 0
0.90453428 1.0847688 -0.33155385 0
1.1849636 1.1798775 -0.33161038 0
1.2712812 1.0813217 -0.33171597 0
1.7071979 1.1044999 -0.33171582 0
2.3508127 1.0985359 -0.33174005 0
3.3875122 1.1455439 -0.33164814 0
3.4193268 1.0442213 -0.33179173 0
5.6350679 1.0765572 -0.33198541 0
-3.827054 1.2951888 -0.33160567 0
-3.7904513 1.3906786 -0.33152142 0
-2.4958529 1.3103836 -0.33171403 0
-1.7104099 1.3123068 -0.33151525 0
-1.2387496 1.2300143 -0.33184338 0
-1.1172134 1.3343322 -0.33163908 0
-0.81558782 1.2099319 -0.33174357 0
-0.69944608 1.2747623 -0.33158451 0
-0.50804722 1.3569419 -0.33142725 0
-0.29525405 1.2658415 -0.33173385 0
-0.085895881 1.2371564 -0.33177167 0
0.097849578 1.2317327 -0.33176744 0
0.30723605 1.3100398 -0.33191144 0
0.51085544 1.3296089 -0.33177435 0
0.68292111 1.2462697 -0.33197376 0
0.96018547 1.3757962 -0.3313615 0
1.0902225 1.2703896 -0.33164552 0
1.5517632 1.3236381 -0.33167189 0
1.6249422 1.2301116 -0.33180234 0
2.1967645 1.3912373 -0.3313666 0
2.2542672 1.2946024 -0.33173251 0
3.339057 1.2883905 -0.33163628 0
5.588419 1.306699 -0.33177051 0
5.6136675 1.2051864 -0.33205789 0
-4.0243907 1.5106277 -0.20233843 0
-3.7417912 1.5138514 -0.3317087 0
-2.4218113 1.4387425 -0.33176821 0
-2.3533187 1.5419103 -0.33173633 0
-1.6107109 1.4344041 -0.33200464 0
-1.513272 1.528352 -0.33172882 0
-1.0097858 1.4161776 -0.33185431 0
-0.89702815 1.4829781 -0.33153057 0
-0.72206986 1.5700154 -0.3314274 0
-0.27775094 1.4170865 -0.33154887 0
-0.09287446 1.4361392 -0.33156553 0
0.10721532 1.4294457 -0.33150756 0
0.26272872 1.4069034 -0.33167639 0
0.57481337 1.5882735 -0.3312428 0
0.70359868 1.5324671 -0.33168709 0
0.85588896 1.447574 -0.33154494 0
1.3486314 1.5405791 -0.33168268 0
1.4556544 1.4360366 -0.33186916 0
2.1420231 1.4822645 -0.33171162 0
3.26278 1.4847804 -0.33166188 0
5.5492167 1.4981519 -0.33196065 0
-4.0242224 1.7136043 -0.20623073 0
-3.6547837 1.6989117 -0.33162108 0
-2.2539918 1.6771916 -0.33177438 0
-2.1669984 1.779551 -0.33153614 0
-1.4164692 1.6171958 -0.33195049 0
-1.3026212 1.7016568 -0.33168361 0
-1.170978 1.7901491 -0.33161774 0
-0.63027388 1.6089647 -0.33181652 0
-0.50240517 1.646997 -0.33155683 0
-0.29459783 1.6918937 -0.33186251 0
-0.1015441 1.707806 -0.33168152 0
0.11032856 1.701053 -0.33169049 0
0.30072168 1.6710775 -0.33150837 0
0.47812706 1.6254096 -0.33178109 0
1.0549873 1.7670761 -0.33174706 0
1.2486023 1.6295731 -0.33190507 0
1.9511088 1.7401078 -0.33165622 0
2.0424736 1.6268061 -0.33178431 0
3.1663203 1.6996604 -0.33182624 0
3.2099175 1.6063113 -0.33168995 0
5.5032206 1.684742 -0.33204433 0
-4.0248213 1.8617013 -0.20935312 0
-3.5716529 1.8617282 -0.33182114 0
-2.067982 1.8883942 -0.33169392 0
-1.972225 1.9855857 -0.33191293 0
-1.0688868 1.8490112 -0.33173892 0
-0.89351892 1.932355 -0.33169711 0
-0.74933738 1.9886627 -0.3317824 0
0.58274293 1.9922945 -0.33157402 0
0.69871283 1.9495585 -0.33164111 0
0.90665424 1.8542565 -0.33174935 0
1.757983 1.9491721 -0.33177367 0
1.8524306 1.8524505 -0.331718 0
3.0370541 1.9372652 -0.33183053 0
5.4284887 1.9355171 -0.33198091 0
-3.4376273 2.0817666 -0.33170643 0
-3.3676629 2.1852314 -0.33168027 0
-1.8701888 2.0723689 -0.33165717 0
-1.7478385 2.1695056 -0.33160028 0
-0.65150112 2.0189786 -0.33177048 0
-0.49634871 2.0557077 -0.33166036 0
-0.30476871 2.086262 -0.33175084 0
-0.089275636 2.099108 -0.33180881 0
0.10623746 2.0909548 -0.33178952 0
0.31184191 2.0627148 -0.33178532 0
0.49208423 2.0208948 -0.3318013 0
1.538924 2.1385305 -0.33171666 0
1.6583067 2.0422688 -0.33192626 0
2.9343028 2.101774 -0.33180571 0
5.3733315 2.1071301 -0.33205688 0
-3.2822509 2.3027048 -0.33172771 0
-1.6482635 2.2433603 -0.33188412 0
-1.5058341 2.3315425 -0.33173013 0
1.1710948 2.3802588 -0.33172855 0
1.3069814 2.2991207 -0.33162826 0
1.4351854 2.219496 -0.33208874 0
2.7594497 2.3405869 -0.33150268 0
2.8418684 2.2359943 -0.33179185 0
5.3090539 2.2794685 -0.33197042 0
-3.2002013 2.4115 -0.33190501 0
-3.1122658 2.5112388 -0.33173347 0
-1.3340001 2.4238014 -0.3315793 0
-1.0876653 2.5345192 -0.331889 0
-0.93749887 2.5858583 -0.33173269 0
0.72444999 2.5729678 -0.33166918 0
0.89788502 2.507751 -0.33156475 0
1.0724518 2.4315457 -0.33178097 0
2.5840669 2.5510592 -0.33156759 0
2.6700532 2.4548488 -0.33173648 0
5.1984673 2.5612051 -0.33217287 0
5.233119 2.4752271 -0.33207446 0
-3.0111315 2.6221826 -0.331669 0
-2.9072347 2.7256103 -0.33160898 0
-0.84068429 2.6154659 -0.33185899 0
-0.68964607 2.6503038 -0.3317022 0
-0.49234837 2.6850951 -0.33174521 0
-0.29955456 2.7038612 -0.33165988 0
-0.093022391 2.7082031 -0.33153999 0
0.10278395 2.7001553 -0.33170643 0
0.30429548 2.6751096 -0.3316569 0
0.5128727 2.6338191 -0.33174762 0
0.63353628 2.6028397 -0.33181664 0
2.3850882 2.7587943 -0.33176261 0
2.4793243 2.6664724 -0.33184943 0
5.1426458 2.6805217 -0.3320637 0
-2.8061576 2.8259356 -0.33186519 0
-2.6943161 2.9205871 -0.331743 0
2.1639438 2.9522796 -0.33165705 0
2.2876608 2.8480799 -0.33176589 0
5.0263982 2.9138079 -0.33190578 0
-6.2731481 3.1280258 -0.33138442 0
-2.4928021 3.0785038 -0.33175442 0
-2.3515692 3.1782959 -0.3318125 0
1.7085059 3.1049216 -0.31888664 0
1.9118298 3.0903001 -0.3278937 0
2.0681765 3.0311975 -0.33190045 0
2.320384 3.0917606 -0.21478087 0
2.5082641 3.0910664 -0.22186805 0
2.7055964 3.0917153 -0.22966604 0
2.9200954 3.0921538 -0.23844752 0
3.1195762 3.0912204 -0.24683331 0
3.3117523 3.0923645 -0.25520962 0
3.5000014 3.0896544 -0.2634756 0
3.7060184 3.0916078 -0.27289131 0
3.9094052 3.0913143 -0.28229475 0
4.111486 3.0907514 -0.29179776 0
4.3119512 3.0908465 -0.30139247 0
4.5089417 3.0910766 -0.31095788 0
4.7008867 3.0917039 -0.32040235 0
4.9252558 3.0573983 -0.33062202 0
-6.2081289 3.2459667 -0.33148339 0
-6.1450658 3.3508558 -0.33149019 0
-2.2500138 3.2417359 -0.33171201 0
-2.0928092 3.3346887 -0.33180484 0
-1.9727175 3.3969066 -0.3316507 0
1.5473615 3.3644834 -0.33182946 0
1.6425854 3.2807946 -0.32938108 0
-6.0459671 3.5052516 -0.33144653 0
-1.8705186 3.4485798 -0.33181539 0
-1.6890619 3.5262027 -0.33164853 0
-1.5341493 3.5855024 -0.33160883 0
1.1182171 3.558991 -0.33176717 0
1.3075286 3.47914 -0.33165056 0
1.4476622 3.4137309 -0.33165351 0
-5.9363651 3.6669216 -0.33145821 0
-1.4382859 3.6192601 -0.33166742 0
-1.2980994 3.662478 -0.33170003 0
-1.0937345 3.7137916 -0.33159274 0
-0.89567906 3.755131 -0.33173543 0
-0.68761247 3.7844398 -0.3316634 0
-0.53043973 3.7959139 -0.33135536 0
0.13632192 3.7900279 -0.3315742 0
0.30978855 3.7698462 -0.3317048 0
0.51751691 3.7330942 -0.331682 0
0.71053511 3.6879921 -0.3316434 0
0.91544747 3.6283829 -0.33161557 0
-5.8086362 3.8453686 -0.33149719 0
-5.7354064 3.9425716 -0.33156016 0
-0.47071838 3.806308 -0.33189684 0
-0.28898606 3.8106823 -0.33173633 0
-0.088697903 3.8072 -0.33169374 0
0.052560367 3.802669 -0.33200398 0
-5.6282744 4.0750189 -0.33153385 0
-5.5414782 4.1767063 -0.33149883 0
-5.4462576 4.2867389 -0.33157283 0
-5.3558407 4.3847589 -0.33156779 0
-5.2542005 4.4886017 -0.33152369 0
-5.1510348 4.5906062 -0.33150649 0
-5.0555258 4.6827316 -0.33156508 0
-4.9473996 4.7790227 -0.33149189 0
-4.8486147 4.8670096 -0.33157042 0
-4.7045722 4.976335 -0.3312107 0
-4.4948864 5.0110149 -0.32626039 0
-4.2918191 5.008759 -0.32029599 0
-4.0855827 5.0109253 -0.31460583 0
-3.9219799 5.0124102 -0.31023258 0
-3.6706054 5.0120564 -0.30367446 0
-3.4850016 5.0115514 -0.29903924 0
-3.2966633 5.0118194 -0.29457805 0
-3.0970511 5.010354 -0.29000437 0
-2.8930714 5.0102592 -0.28566378 0
-2.6887136 5.0093546 -0.28156 0
-2.5003958 5.008616 -0.27803656 0
-2.2843418 5.0090322 -0.27439356 0
-2.0739949 5.0079269 -0.27111334 0
-1.917037 5.0079761 -0.26895827 0
-1.7025523 5.0078621 -0.26633602 0
-1.4829326 5.0121236 -0.26429069 0
-1.2856584 5.0105286 -0.26256818 0
-1.0862596 5.0116081 -0.26133305 0
-0.88438362 5.0112009 -0.26040363 0
-0.68493778 5.0084949 -0.25976533 0
-0.48644584 5.0098519 -0.25973991 0
-0.28314856 5.0104995 -0.2600975 0
-0.093881831 5.0128269 -0.26090419 0
2.4756417 5.5684996 -0.33178407 0
2.684814 5.4459691 -0.33181149 0
2.0921559 5.770896 -0.33190608 0
2.3297944 5.6506038 -0.33188382 0
1.5952369 5.9801269 -0.33170721 0
1.7168897 5.9341621 -0.3318041 0
1.9162495 5.8497729 -0.33179641 0
0.960814 6.1833138 -0.33167803 0
1.119821 6.1419344 -0.33184183 0
1.3185184 6.0808868 -0.33186862 0
1.4934802 6.0189719 -0.33177844 0
0.11391678 6.3491397 -0.33175102 0
0.31232259 6.3207536 -0.33173367 0
0.51999712 6.2848969 -0.33175272 0
0.72588736 6.2442117 -0.33186066 0
0.86525083 6.2099886 -0.33178666 0
-14.945956 7.2920876 -0.2047587 0
-14.947183 7.5528903 -0.20672476 0
-14.948607 7.7512794 -0.20826378 0
-14.947123 7.9503059 -0.20981121 0
-14.946037 8.1517553 -0.2114142 0
-14.945891 8.3560123 -0.21308172 0
-14.946409 8.5630722 -0.2148115 0
-14.893335 8.7641973 -0.21601781 0
-14.667324 8.8163233 -0.21433914 0
-14.493633 8.8155088 -0.21270919 0
-14.265103 8.8135881 -0.21056917 0
-14.048655 8.8160305 -0.20859411 0
-13.831338 8.8149004 -0.20659298 0
-13.672987 8.815135 -0.20515312 0
-13.516998 8.8150616 -0.20374049 0
-13.310493 8.8135042 -0.20186824 0
-13.115379 8.8166904 -0.20015617 0
7.5015903 -4.0582991 -0.1919131 0
7.5044732 -3.9254959 -0.19085173 0
7.50383 -3.7269921 -0.18921113 0
7.5046725 -3.5333219 -0.18770519 0
7.5032015 -3.3267095 -0.18612 0
7.5044351 -3.1253264 -0.18470354 0
7.5022907 -2.9264414 -0.18330622 0
7.5037584 -2.7175617 -0.181999 0
7.502718 -2.5259988 -0.18082091 0
7.5034804 -2.3380158 -0.17977673 0
7.5036435 -2.1382489 -0.17873028 0
7.5036345 -1.9272318 -0.17771156 0
7.5028262 -1.7188294 -0.17677772 0
-3.9156032 -1.4103866 -0.12385321 0
-3.7110455 -1.4105656 -0.048926421 0
-3.493264 -1.4106387 -0.098987296 0
-3.3057253 -1.4106433 -0.10740599 0
-3.1075842 -1.4102101 -0.10220024 0
-2.9046481 -1.4108949 -0.096951768 0
-2.6971111 -1.4104435 -0.091605648 0
-2.4965644 -1.4101706 -0.089138776 0
-2.3031483 -1.4103295 -0.07701169 0
-2.0974348 -1.4102341 -0.081375353 0
-1.9059875 -1.4104838 -0.072524227 0
-1.7059717 -1.410852 -0.10693841 0
-1.504174 -1.4104314 -0.10242487 0
-1.3055692 -1.4110185 -0.09390898 0
-1.1047534 -1.4104297 -0.088169537 0
-0.90197462 -1.4101827 -0.086869627 0
-0.70664918 -1.4105452 -0.10761904 0
-0.50744742 -1.4103595 -0.10190798 0
-0.30767953 -1.4109054 -0.10110574 0
-0.10547638 -1.4105347 -0.098926194 0
0.094520465 -1.4101626 -0.099980414 0
0.29452553 -1.410274 -0.10300831 0
0.49434811 -1.4106967 -0.1091245 0
0.69437718 -1.4106675 -0.11445906 0
0.89097655 -1.410931 -0.096632428 0
1.0948938 -1.410212 -0.10017793 0
1.2940372 -1.4106778 -0.1080531 0
1.495374 -1.4102277 -0.11658299 0
1.6941836 -1.4108788 -0.12280729 0
1.885661 -1.4103566 -0.09684059 0
2.0893829 -1.4104912 -0.10255805 0
2.2917764 -1.4105709 -0.10973835 0
2.5015297 -1.409492 -0.14001314 0
7.5045114 -1.5271382 -0.17605723 0
-4.0245938 -1.3219757 -0.10102034 0
0.15312257 -1.3998684 -0.075036645 0
7.5061836 -1.3237343 -0.17537943 0
-4.0251122 -1.0870945 -0.12342259 0
7.5055299 -1.1217263 -0.1747425 0
-4.0235672 -0.88663626 -0.12163298 0
7.504221 -0.92128724 -0.17418805 0
-4.0241556 -0.68847972 -0.12027439 0
7.502604 -0.72214818 -0.17371827 0
-4.0226879 -0.49106869 -0.048383519 0
7.502543 -0.52423757 -0.17337894 0
-4.0246167 -0.29421017 -0.048020437 0
7.5045304 -0.32712215 -0.17317604 0
-4.0234418 -0.10668663 -0.04779014 0
7.5042133 -0.13030885 -0.17301241 0
-4.0237145 0.15429159 -0.047748432 0
7.5023417 0.079413459 -0.17290072 0
-4.0244412 0.31374529 -0.047880583 0
7.5034428 0.27610937 -0.17295375 0
-4.0260763 0.51284367 -0.048201412 0
7.5008192 0.47302651 -0.173013 0
-4.0245986 0.71265155 -0.048655219 0
7.503459 0.67093545 -0.17328234 0
-4.0240655 0.91292846 -0.12138657 0
7.5045347 0.86971432 -0.17360911 0
-4.0244746 1.1140873 -0.12304321 0
7.503232 1.0694293 -0.17397149 0
-4.0246835 1.3142939 -0.12502424 0
7.5016828 1.2705586 -0.17442417 0
-4.024343 1.5125086 -0.052142393 0
7.5030351 1.4739255 -0.17503817 0
-4.0253673 1.714412 -0.053409502 0
7.500947 1.6649718 -0.17562249 0
-4.0240951 1.8651574 -0.05442084 0
7.5023403 1.872789 -0.17643182 0
7.5046201 2.0836256 -0.17736369 0
7.5046997 2.2826812 -0.17828265 0
7.5043535 2.4845862 -0.17928773 0
7.5023513 2.674356 -0.1802686 0
7.5044479 2.8687925 -0.18143943 0
1.6774584 3.1518421 -0.13458049 0
1.9135339 3.0912526 -0.13689739 0
2.1055565 3.0916946 -0.13876323 0
2.3013637 3.0922236 -0.099805027 0
2.5099273 3.0921357 -0.082729653 0
2.7123635 3.0908105 -0.086124212 0
2.9094777 3.0908933 -0.08954078 0
3.1100516 3.0915649 -0.093113527 0
3.3113122 3.0910926 -0.096762508 0
3.5008287 3.0895309 -0.10025424 0
3.7075286 3.0920115 -0.10417634 0
3.9093544 3.0904582 -0.1080228 0
4.1140485 3.0918777 -0.11201234 0
4.3136172 3.0912597 -0.11593014 0
4.5105982 3.0914354 -0.11984926 0
4.7014136 3.0912616 -0.1236797 0
4.9058943 3.0922701 -0.12783426 0
5.1187587 3.0907626 -0.13217302 0
5.3048229 3.0905087 -0.13600436 0
5.503437 3.0912609 -0.14013121 0
5.7123246 3.0916111 -0.14449477 0
5.9071345 3.0911269 -0.14858228 0
6.1139612 3.0913095 -0.15295075 0
6.3029308 3.0907974 -0.15695599 0
6.5022321 3.0903881 -0.16120088 0
6.715816 3.0919478 -0.16578296 0
6.9023914 3.0905988 -0.16978239 0
7.1004891 3.0903842 -0.17405209 0
7.3113518 3.0914471 -0.1786209 0
7.4895797 3.0367031 -0.18214235 0
-4.8704672 5.011075 -0.093403675 0
-4.6859798 5.0102119 -0.092202947 0
-4.4931793 5.0105066 -0.091011614 0
-4.2918797 5.0102429 -0.089818329 0
-4.0831757 5.00946 -0.08863885 0
-3.872884 5.0112514 -0.087555431 0
-3.6836851 5.0120029 -0.086636513 0
-3.4699559 5.0118766 -0.085662007 0
-3.288579 5.0101128 -0.084882796 0
-3.0966225 5.0113783 -0.084173873 0
-2.8937294 5.0089149 -0.083457395 0
-2.6752374 5.0089355 -0.082824871 0
-2.4770494 5.0096693 -0.082362533 0
-2.292006 5.0088663 -0.081997097 0
-2.0825977 5.0123773 -0.081761204 0
-1.89043 5.0097618 -0.081558436 0
-1.6913421 5.0064859 -0.081447616 0
-1.4818549 5.0118532 -0.081603974 0
-1.2827656 5.0103002 -0.081768997 0
-1.0831156 5.0099907 -0.082079396 0
-0.88312238 5.0096264 -0.082519405 0
-0.68251491 5.011117 -0.083126128 0
-0.48365283 5.0094023 -0.083807305 0
-0.28211915 5.0098591 -0.084674321 0
-0.092900619 5.01301 -0.08566168 0
3.8758864 7.6884365 -0.16990897 0
3.8747785 7.8563628 -0.17247277 0
3.874985 8.0688248 -0.1757533 0
3.875124 8.2906284 -0.17919458 0
3.8738601 8.479907 -0.1821264 0
3.8749208 8.6822891 -0.1853058 0
-12.917949 8.8156052 -0.19839644 0
-12.676609 8.8139658 -0.19626153 0
-12.445565 8.8156357 -0.19426793 0
-12.259359 8.8129663 -0.192637 0
-12.079589 8.8123665 -0.19109474 0
-11.863899 8.8146162 -0.18929225 0
-11.649949 8.8146858 -0.1875006 0
-11.482022 8.8144064 -0.18610536 0
-11.277935 8.8151722 -0.18443888 0
-11.077988 8.8158941 -0.18282345 0
-10.880432 8.8148041 -0.18122822 0
-10.651546 8.8158073 -0.17942767 0
-10.463033 8.81495 -0.177946 0
-10.279879 8.8151283 -0.17653671 0
-10.065651 8.816103 -0.17491959 0
-9.850894 8.8120909 -0.17326808 0
-9.6482382 8.8145247 -0.17180493 0
-9.4463053 8.813365 -0.17033081 0
-9.2503262 8.8136072 -0.16894042 0
-9.05898 8.8142033 -0.16761136 0
-8.8745251 8.817606 -0.16638762 0
0.12916791 8.8158178 -0.15226555 0
0.32947826 8.8167372 -0.15349138 0
0.53006852 8.8157043 -0.1547668 0
0.73122483 8.8156986 -0.15614109 0
0.93314081 8.8153229 -0.15759602 0
1.1358392 8.8139133 -0.15911679 0
1.3245021 8.8162842 -0.16066729 0
1.5295712 8.8141317 -0.16235058 0
1.7368668 8.8158827 -0.16419746 0
1.9292033 8.8139563 -0.16592412 0
2.1240072 8.8153381 -0.16779849 0
2.3202281 8.8143759 -0.16971692 0
2.5191545 8.8153238 -0.17176417 0
2.7204857 8.816247 -0.17390628 0
2.9236593 8.8146429 -0.17609742 0
3.1307395 8.8162584 -0.17845562 0
3.3397088 8.8144693 -0.18085201 0
3.5348434 8.8146944 -0.18318333 0
3.7330866 8.8148918 -0.18561484 0
7.5024481 -4.057941 0.10584894 0
7.5029626 -3.9239118 0.10479363 0
7.5036774 -3.7261848 0.10328622 0
7.5016012 -3.5311737 0.10183537 0
7.5035205 -3.326221 0.10042401 0
7.5030308 -3.1241384 0.09907914 0
7.5031991 -2.9262428 0.097843178 0
7.5036459 -2.7170389 0.096618682 0
7.5043101 -2.5260804 0.095576867 0
7.5033789 -2.3375735 0.094603643 0
7.5025563 -2.1375818 0.09365043 0
7.5033755 -1.9268708 0.092755564 0
7.5021439 -1.718413 0.091937423 0
-3.9127846 -1.4098629 0.094101831 0
-3.7094038 -1.4102719 0.089637443 0
-3.4916363 -1.4105792 0.1372849 0
-3.3049753 -1.4109902 0.14364573 0
-3.1060781 -1.410206 0.13619296 0
-2.9033265 -1.4109328 0.1286229 0
-2.7011132 -1.4104414 0.12422132 0
-2.5053012 -1.4097205 0.11134768 0
-2.3008208 -1.4099786 0.10674666 0
-2.100888 -1.4109497 0.10187056 0
-1.9056842 -1.4104959 0.093128026 0
-1.7043566 -1.409984 0.12523198 0
-1.5037125 -1.4109191 0.11853963 0
-1.304399 -1.410274 0.1076993 0
-1.1072388 -1.4103798 0.097796679 0
-0.90104949 -1.4102323 0.096167788 0
-0.70588046 -1.410354 0.11479288 0
-0.50693917 -1.4103885 0.10621199 0
-0.3065289 -1.4103063 0.10438305 0
-0.10434339 -1.4105217 0.099358194 0
0.095722556 -1.4105728 0.097572491 0
0.29792526 -1.4104186 0.1008638 0
0.49784169 -1.4098648 0.10095862 0
0.69575793 -1.4102508 0.10590055 0
0.89233339 -1.4102759 0.085864939 0
1.0979774 -1.4106308 0.089324385 0
1.2686064 -1.4071459 0.059109543 0
1.4960182 -1.4109859 0.10142704 0
1.6854064 -1.4078305 0.14231771 0
1.8875886 -1.4106488 0.078634851 0
2.0944247 -1.4105464 0.076100565 0
2.2955191 -1.4111761 0.080902897 0
2.4577117 -1.4088504 0.084764175 0
7.5040908 -1.5268172 0.091304176 0
-4.0236626 -1.3388338 0.096171685 0
7.5038376 -1.3231319 0.090693533 0
-4.0256162 -1.0958778 0.095051497 0
7.5029416 -1.1212056 0.090169549 0
-4.0237951 -0.8902092 0.094204672 0
7.5040302 -0.92117119 0.089765996 0
-4.0237775 -0.67963976 0.093558162 0
7.5034056 -0.72216171 0.089432828 0
-4.0240426 -0.48783258 0.093135171 0
7.5055804 -0.52442533 0.089226753 0
-4.0246463 -0.28633162 0.092865959 0
7.5041022 -0.32710603 0.089066014 0
-4.0225096 -0.11638478 0.092711553 0
7.5048127 -0.13036153 0.089023478 0
-4.0243125 0.1543068 0.092845604 0
7.5017347 0.079316393 0.089030631 0
-4.0231342 0.31367388 0.093027279 0
7.5018845 0.27594212 0.089165285 0
-4.0257211 0.51287657 0.093495116 0
7.5043879 0.47310793 0.089420274 0
-4.0233841 0.71400267 0.09402445 0
7.5033121 0.67072403 0.08972159 0
-4.0229621 0.91215628 0.094752446 0
7.5039282 0.86942095 0.09013705 0
-4.023787 1.1141711 0.095685452 0
7.5025764 1.0690502 0.090620019 0
-4.0251393 1.3155692 0.096785486 0
7.5018635 1.2702545 0.091207564 0
-4.0248904 1.5113498 0.097964078 0
7.5022864 1.473413 0.091903687 0
-4.0242629 1.714262 0.099321634 0
7.5034518 1.665099 0.092653304 0
-4.0250449 1.8625207 0.10042439 0
7.5030394 1.8725263 0.093535878 0
7.5017996 2.0823305 0.094510317 0
7.5043859 2.2820401 0.095566109 0
7.5024281 2.4833469 0.096661821 0
7.5038781 2.6742878 0.097811073 0
7.5012794 2.8669131 0.099000275 0
1.6777278 3.1501496 0.11489475 0
1.9147556 3.0913808 0.11714947 0
2.112535 3.0919876 0.12522493 0
2.3028734 3.0912089 0.075713575 0
2.5089333 3.0909116 0.056292478 0
2.7124631 3.0899794 0.057433646 0
2.9073958 3.0917852 0.058654845 0
3.1098225 3.0904453 0.059970576 0
3.313411 3.0921836 0.061412394 0
3.5040171 3.0914764 0.062802307 0
3.7084045 3.0919194 0.064372927 0
3.9110379 3.090982 0.065975025 0
4.1142588 3.0912304 0.067651406 0
4.3142433 3.0909183 0.069343925 0
4.5108371 3.0907979 0.071053967 0
4.7019744 3.0908496 0.072755575 0
4.905777 3.0914166 0.074613556 0
5.1210794 3.0914133 0.076607846 0
5.3079734 3.0915728 0.078369923 0
5.5041533 3.0909183 0.08024025 0
5.7119026 3.0906425 0.082251534 0
5.907331 3.090488 0.084169045 0
6.1143384 3.0907791 0.086227357 0
6.303441 3.0903218 0.088120818 0
6.5076318 3.0922172 0.090204313 0
6.7124519 3.0896642 0.092277579 0
6.9058847 3.0914266 0.094283685 0
7.1046362 3.0914545 0.096346468 0
7.3131757 3.091486 0.098526046 0
7.495286 3.0459454 0.10012886 0
-4.8689985 5.0108986 0.15052891 0
-4.6860776 5.0116634 0.14731336 0
-4.4914136 5.0099401 0.14390737 0
-4.2897692 5.0092425 0.14045131 0
-4.0834422 5.0112829 0.13701615 0
-3.8756342 5.0120411 0.13360858 0
-3.6918244 5.0122871 0.13065249 0
-3.4762697 5.0124807 0.12726115 0
-3.2807317 5.0113277 0.12424318 0
-3.0845881 5.0119438 0.12132025 0
-2.8971987 5.0096931 0.11856327 0
-2.7121511 5.0095882 0.1159479 0
-2.4636459 5.0086555 0.11255208 0
-2.2872691 5.0095282 0.11026153 0
-2.0825114 5.0116367 0.10772258 0
-1.9038559 5.0083261 0.10551725 0
-1.6867677 5.0099936 0.10305446 0
-1.4833963 5.0064411 0.10078231 0
-1.2817355 5.0102553 0.098786712 0
-1.08213 5.0100632 0.096867166 0
-0.88192916 5.0085006 0.095048256 0
-0.6832661 5.0104074 0.093435653 0
-0.48456797 5.0107789 0.09192951 0
-0.28115499 5.0101056 0.090509698 0
-0.091875888 5.0100646 0.089326724 0
3.8740225 7.7150035 0.13109525 0
3.8758924 7.8895512 0.13387442 0
3.8752286 8.0656109 0.13668479 0
3.8759575 8.2884865 0.14026131 0
3.8734 8.4748421 0.14325896 0
3.8743601 8.6767998 0.14652763 0
0.13092156 8.8168993 0.15555052 0
0.33120021 8.8166256 0.15451629 0
0.53185028 8.8165188 0.1535646 0
0.73291266 8.8150759 0.15266487 0
0.93488044 8.815464 0.15187533 0
1.1375757 8.8138542 0.15112558 0
1.3262469 8.8162231 0.15056796 0
1.5316204 8.8158798 0.1499881 0
1.7381258 8.8133049 0.14944473 0
1.9309499 8.8139114 0.14906287 0
2.1260407 8.8163633 0.14877795 0
2.3223026 8.8154163 0.14850223 0
2.5215669 8.8174381 0.14834389 0
2.721684 8.814209 0.14816561 0
2.9259727 8.8161259 0.14814343 0
3.1318157 8.8140211 0.14812467 0
3.3417764 8.8149996 0.14823017 0
3.5365341 8.8141747 0.14836219 0
3.735719 8.8166161 0.14861509 0
7.5037122 -3.7254617 0.39601052 0
7.5031152 -3.5312278 0.39160669 0
7.5017776 -3.3248255 0.38711327 0
7.5038986 -3.1239212 0.3830975 0
7.5044041 -2.9261739 0.37930056 0
7.5036511 -2.716536 0.37545779 0
7.5043516 -2.525651 0.37223828 0
7.5033751 -2.3371582 0.36920351 0
7.5039649 -2.1376016 0.36629522 0
7.5035758 -1.9265941 0.36344698 0
7.5054822 -1.7189057 0.36101717 0
-3.9139845 -1.4107922 0.31266043 0
-3.7116299 -1.4116163 0.29823589 0
-3.5220337 -1.4103789 0.31765315 0
-3.3043053 -1.4112135 0.33259737 0
-3.1056767 -1.41053 0.31555185 0
-2.8873 -1.4110348 0.34042796 0
-2.6998036 -1.4104282 0.33821529 0
-2.5006566 -1.410769 0.31549284 0
-2.2993522 -1.4104306 0.29080576 0
-2.0967073 -1.4102606 0.30443847 0
-1.900242 -1.4104887 0.30130231 0
-1.7048349 -1.4109719 0.32217279 0
-1.4920112 -1.4105095 0.31864688 0
-1.3032832 -1.4109232 0.31595641 0
-1.0980843 -1.4104075 0.29520985 0
-0.89887571 -1.4106175 0.30239409 0
-0.69680852 -1.4107074 0.31163231 0
-0.49311739 -1.4105147 0.30617642 0
-0.3031714 -1.4106866 0.30815384 0
-0.10679322 -1.4104726 0.30705884 0
0.10054399 -1.4101635 0.30570516 0
0.29684708 -1.4105333 0.30432481 0
0.49057955 -1.4102631 0.30207476 0
0.69387752 -1.4104486 0.30331779 0
0.89612663 -1.4104236 0.29326221 0
1.093255 -1.4101263 0.27812076 0
1.2929211 -1.4103606 0.29770449 0
1.4891454 -1.4099631 0.29953164 0
1.6970897 -1.4107468 0.30023885 0
1.8977295 -1.410324 0.27658251 0
2.0907285 -1.4105568 0.28020617 0
2.2971663 -1.4104377 0.27006227 0
2.4735701 -1.4103889 0.28503001 0
7.5048246 -1.4722544 0.35837042 0
-4.0242538 -1.3409238 0.31898448 0
7.5028639 -1.3092356 0.35676229 0
-4.0236015 -1.0940124 0.31720862 0
7.5023975 -1.1209574 0.35521388 0
-4.0241323 -0.88665664 0.31407058 0
7.503643 -0.92101181 0.35391548 0
-4.0241876 -0.68916506 0.30805206 0
7.5034628 -0.72211069 0.35282293 0
-4.0245461 -0.49012375 0.30951738 0
7.504477 -0.52432269 0.35206839 0
-4.0236616 -0.28586939 0.30137497 0
7.50176 -0.32700452 0.35140577 0
-4.0237517 -0.11092217 0.30831492 0
7.502243 -0.1303678 0.35117009 0
-4.0233984 0.15425327 0.30429646 0
7.5015311 0.07920526 0.35115558 0
-4.0244493 0.31380785 0.30511183 0
7.5029464 0.27585155 0.35151529 0
-4.0237899 0.51271415 0.30650714 0
7.5024009 0.47280565 0.35205996 0
-4.0239573 0.71424919 0.30870697 0
7.5022273 0.67040396 0.35288852 0
-4.023901 0.91332114 0.31152683 0
7.5037456 0.86915779 0.35407856 0
-4.0242605 1.1123307 0.31499219 0
7.5065403 1.0693358 0.35560238 0
-4.0234847 1.3130486 0.31902933 0
7.5035906 1.3309993 0.3577106 0
-4.0244484 1.5132334 0.32379833 0
7.500556 1.4862801 0.35910314 0
-4.0241795 1.7138857 0.32905918 0
7.5036025 1.6647347 0.36121488 0
-4.0231595 1.862192 0.33320859 0
7.5020432 1.8718162 0.36369213 0
7.5022259 2.0819561 0.36655971 0
7.5039115 2.2813616 0.36960626 0
7.5032158 2.4830501 0.37282777 0
7.5018969 2.6729453 0.3760519 0
7.5037069 2.8671484 0.37971053 0
1.6765579 3.1496601 0.3036226 0
1.9154571 3.0912993 0.30824172 0
2.1115646 3.0920308 0.31654939 0
2.3207462 3.0910559 0.26482245 0
2.5111034 3.0910792 0.265311 0
2.7102573 3.090759 0.26969519 0
2.9104815 3.09097 0.28149921 0
3.1070731 3.0915725 0.28587654 0
3.3026333 3.091619 0.29859072 0
3.5041203 3.0907342 0.22607107 0
3.7093496 3.0918562 0.23312545 0
3.9122415 3.0911109 0.24021879 0
4.1152506 3.0911717 0.24751185 0
4.3145657 3.090364 0.25479102 0
4.5138783 3.092113 0.26228294 0
4.7058396 3.0926132 0.26957461 0
4.907795 3.0919154 0.27732554 0
5.122118 3.0912745 0.28566593 0
5.3081541 3.0909204 0.29299939 0
5.5074177 3.0919876 0.30097812 0
5.7122078 3.0900548 0.30917943 0
5.9124327 3.0924006 0.3173801 0
6.1158161 3.0907607 0.32568017 0
6.3041816 3.0899358 0.33344164 0
6.5069442 3.0911534 0.34190515 0
6.7179375 3.0914516 0.35074502 0
6.9047732 3.090205 0.35858721 0
7.1058183 3.091243 0.36712244 0
7.3173709 3.0925376 0.37615383 0
7.4908848 3.035795 0.38243517 0
-4.8682065 5.0114288 0.39480367 0
-4.6838517 5.0106645 0.38707718 0
-4.4735208 5.0088625 0.37839395 0
-4.2744493 5.0105619 0.37048152 0
-4.0804296 5.0090737 0.36282414 0
-3.8941922 5.0116811 0.35580716 0
-3.7236907 5.0112295 0.34942937 0
-3.4899261 5.0094557 0.34088728 0
-3.2862368 5.0099773 0.33378822 0
-3.0823593 5.0110025 0.32696274 0
-2.8786054 5.0101852 0.32032117 0
-2.6825473 5.009491 0.31420726 0
-2.4890606 5.007915 0.30839625 0
-2.2922034 5.0092072 0.3029089 0
-2.0810347 5.0105824 0.29736763 0
-1.9100765 5.0085306 0.29299238 0
-1.6791306 5.0118923 0.28779149 0
-1.4794959 5.0106592 0.28346166 0
-1.2554169 5.0067625 0.27891499 0
-1.0830586 5.0105314 0.27609205 0
-0.88124824 5.0102067 0.27291039 0
-0.68211412 5.0093269 0.2701399 0
-0.48361975 5.0110412 0.26791447 0
-0.28027633 5.0115957 0.2659941 0
-0.090907916 5.0107069 0.26451579 0
-14.947432 7.29422 0.37586492 0
-14.944018 7.5527945 0.37786826 0
-14.949232 7.7531409 0.37962583 0
-14.948606 7.9526958 0.38128597 0
-14.947354 8.154129 0.3829813 0
-14.944954 8.3572111 0.38469952 0
-14.947649 8.5655499 0.38660276 0
-14.891194 8.7647657 0.38723636 0
-14.665137 8.8168564 0.38305691 0
-14.488737 8.8143797 0.37941307 0
-14.263292 8.8143368 0.37479717 0
-14.041902 8.8136749 0.37027249 0
-13.825546 8.813096 0.36586532 0
-13.665489 8.8121939 0.36260915 0
-13.516251 8.8164768 0.35963121 0
-13.312778 8.8169336 0.35552984 0
-13.107257 8.8131638 0.35135895 0
-12.865891 8.8148375 0.34654069 0
-12.626036 8.8136272 0.34174284 0
-12.44131 8.81458 0.33808205 0
-12.259069 8.814743 0.3344754 0
-12.079867 8.8145533 0.33093801 0
-11.861942 8.8151608 0.32666329 0
-11.646528 8.8141088 0.32243854 0
-11.47615 8.8119297 0.31909692 0
-11.277368 8.816783 0.31529623 0
-11.074962 8.8155556 0.31137618 0
-10.877239 8.8143091 0.30756623 0
-10.648332 8.8152533 0.30320567 0
-10.46022 8.8147001 0.29962656 0
-10.278242 8.8158703 0.29620293 0
-10.061778 8.8148594 0.29212546 0
-9.8530521 8.8162155 0.28824636 0
-9.6465645 8.8151951 0.28440601 0
-9.4475489 8.8167601 0.28075984 0
-9.2496319 8.815197 0.27712053 0
-9.0557241 8.8133097 0.27357483 0
-8.8698711 8.815279 0.27024713 0
7.5016279 -4.0736437 0.40423995 0
7.5020571 -3.9226635 0.40058261 0
-3.9110239 -1.4102361 0.53230852 0
-3.7081215 -1.410776 0.50781649 0
-3.4851949 -1.4103549 0.5253371 0
-3.3012447 -1.4104054 0.52315319 0
-3.1051991 -1.4108145 0.49683625 0
-2.9171698 -1.4101617 0.49762997 0
-2.6938756 -1.4100881 0.54347682 0
-2.5091498 -1.4107809 0.52182561 0
-2.2995472 -1.4108281 0.48875123 0
-2.1070018 -1.4109733 0.51889694 0
-1.9058015 -1.4107773 0.51708537 0
-1.6903614 -1.4107609 0.51048034 0
-1.5088831 -1.4101089 0.50238812 0
-1.2994317 -1.4106274 0.48899019 0
-1.1020137 -1.4103218 0.451107 0
-0.90748179 -1.41053 0.45464641 0
-0.70209777 -1.4112941 0.42639714 0
-0.53593183 -1.4119461 0.40759131 0
0.5387584 -1.4117142 0.40133882 0
0.69680011 -1.4094851 0.41692352 0
0.90618831 -1.4105887 0.44363621 0
1.1011887 -1.4108487 0.43954882 0
1.2935354 -1.4102782 0.47096699 0
1.5045968 -1.4106306 0.48535448 0
1.7270029 -1.410677 0.54098958 0
1.8979751 -1.4106147 0.49137408 0
2.104542 -1.4103868 0.49752674 0
2.2958219 -1.4087117 0.43729478 0
2.4573269 -1.4088875 0.46676245 0
-4.0239477 -1.3409896 0.54333568 0
-4.0222597 -1.0818253 0.53401452 0
-4.0247025 -0.88749582 0.52870381 0
-4.0227094 -0.68627119 0.52376711 0
-4.0228958 -0.48807764 0.52032739 0
-4.0228577 -0.28650433 0.51800919 0
-4.0234637 -0.10692374 0.51704055 0
-4.0245166 0.15428041 0.51742119 0
-4.0248022 0.3138577 0.51867145 0
-4.0236549 0.52088249 0.52120811 0
-4.0241222 0.71443444 0.52491987 0
-4.0248308 0.91303104 0.52989125 0
-4.024333 1.1118879 0.53583896 0
-4.0239677 1.3143373 0.54301816 0
-4.0236382 1.5149168 0.55119812 0
-4.0234833 1.713238 0.56029236 0
-4.0226612 1.8625085 0.56764966 0
1.6755687 3.1511674 0.46231133 0
1.9119731 3.0909579 0.5009197 0
2.1031048 3.0911074 0.50499088 0
2.317338 3.0911391 0.46208936 0
2.512423 3.0922575 0.47583115 0
2.7158875 3.0910206 0.49068663 0
2.9090817 3.0908189 0.50552678 0
3.1038184 3.0914569 0.52114826 0
3.3233409 3.0904503 0.52124834 0
3.5055642 3.0907204 0.47241652 0
3.7041483 3.0914812 0.48143017 0
3.9138763 3.0915909 0.41516781 0
4.1154575 3.0905116 0.42794809 0
4.3177967 3.0918777 0.44115314 0
4.5131888 3.0908504 0.45400432 0
4.7063241 3.0921681 0.46701172 0
4.907311 3.0908489 0.480609 0
5.1240535 3.0916693 0.49556598 0
5.3103743 3.0914605 0.50852859 0
5.5073023 3.0911696 0.5223676 0
5.7147141 3.090656 0.53706908 0
5.9093537 3.0900536 0.55098343 0
6.1181927 3.091239 0.5661056 0
6.30687 3.090518 0.57979161 0
6.5074978 3.090673 0.5944795 0
-4.0808172 5.0110364 0.58975756 0
-3.8804109 5.0103865 0.57767791 0
-3.6927028 5.0115986 0.56680322 0
-3.4701688 5.0108428 0.5541774 0
-3.2588177 5.0107961 0.54267794 0
-3.0816014 5.0106883 0.53338391 0
-2.8838365 5.0089355 0.52329075 0
-2.6794319 5.0098538 0.51353043 0
-2.4524424 5.0094175 0.50316191 0
-2.2853208 5.0096064 0.49599689 0
-2.0877564 5.0078735 0.48781216 0
-1.8951977 5.0079536 0.4805181 0
-1.6777745 5.0108929 0.47315758 0
-1.4786739 5.0113239 0.46683285 0
-1.2798957 5.0107913 0.46106058 0
-1.0819944 5.0101514 0.45591757 0
-0.8803792 5.0109396 0.45146146 0
-0.68104929 5.0087786 0.4474667 0
-0.48264673 5.0111575 0.44455358 0
-0.27921426 5.0102568 0.44198 0
-0.08995989 5.0121956 0.44046998 0
3.875104 7.7136965 0.43275964 0
3.8748112 7.8837647 0.44078082 0
3.8752046 8.0618496 0.44923076 0
3.8756123 8.2838383 0.45980915 0
3.8755891 8.4755583 0.46897864 0
3.8750279 8.6740408 0.47850311 0
0.13259238 8.8136482 0.46359566 0
0.33291346 8.8159809 0.46286961 0
0.53342354 8.8137884 0.46214905 0
0.73478532 8.8167238 0.46192858 0
0.93663573 8.8154011 0.46172917 0
1.1392776 8.8135138 0.46173349 0
1.3278916 8.8154573 0.46214744 0
1.5330927 8.8140593 0.46265033 0
1.7402546 8.815136 0.46352357 0
1.9328467 8.8144522 0.4644675 0
2.1273432 8.8143511 0.4656598 0
2.3240297 8.8151102 0.4671196 0
2.5225308 8.8144464 0.46873075 0
2.7240338 8.8158731 0.47068536 0
2.9274726 8.8150969 0.47276047 0
3.1340694 8.8151579 0.47512567 0
3.3258858 8.8146467 0.4774811 0
3.5210731 8.8153725 0.48012874 0
3.7370024 8.815134 0.48321459 0
7.5028315 -4.0734715 0.70357895 0
7.5042157 -3.9229963 0.69753808 0
7.5034132 -3.7245908 0.68965268 0
7.5032969 -3.5306146 0.68230999 0
7.5042934 -3.3253074 0.67498028 0
7.501502 -3.1223378 0.66781169 0
7.5037632 -2.9254045 0.66159981 0
7.502564 -2.7156556 0.65510803 0
7.5019212 -2.5243788 0.64958841 0
7.5036178 -2.3368325 0.64471847 0
7.5034318 -2.137104 0.6397658 0
7.5027618 -1.9260869 0.63495022 0
7.502521 -1.7179567 0.63068515 0
-4.0270624 -1.4051868 0.69824916 0
-3.8963015 -1.4104203 0.70275587 0
-3.7048852 -1.4100624 0.7201938 0
-3.520473 -1.4107858 0.7112965 0
-3.2996857 -1.4102483 0.71630049 0
-3.0918868 -1.4109063 0.72973186 0
-2.8994241 -1.4107444 0.70218533 0
-2.6934066 -1.410934 0.71696639 0
-2.4980972 -1.4108627 0.73003864 0
-2.3044865 -1.4108511 0.68968481 0
-2.1172309 -1.4107828 0.68603545 0
-1.8953454 -1.4104501 0.64408219 0
-1.7613434 -1.4101961 0.6147542 0
1.9395596 -1.407624 0.63021493 0
2.1001396 -1.4104332 0.66493672 0
2.3028328 -1.408857 0.63701701 0
2.4644556 -1.4096437 0.66897166 0
7.5027833 -1.5260853 0.6272108 0
-4.0240669 -1.2929096 0.69222414 0
7.5028658 -1.3225751 0.62395686 0
-4.0242071 -1.0920627 0.68326533 0
7.5028601 -1.1208738 0.62116981 0
-4.0246544 -0.87002665 0.7092452 0
7.5026336 -0.92076325 0.61885017 0
-4.024323 -0.68683285 0.74320102 0
7.5026865 -0.72194731 0.6170103 0
-4.0243249 -0.48633164 0.73813719 0
7.5044041 -0.52426642 0.61577743 0
-4.0237861 -0.28817427 0.73130214 0
7.5028419 -0.32706222 0.61472082 0
-4.0236368 -0.10701485 0.73317331 0
7.501904 -0.13041227 0.61417776 0
-4.0242553 0.15426697 0.7336365 0
7.5029073 0.079145595 0.61425376 0
-4.0245543 0.31179038 0.72588134 0
7.5030637 0.27572337 0.61472112 0
-4.0234318 0.51288462 0.73882091 0
7.5038939 0.47273317 0.61570573 0
-4.0237808 0.71307391 0.74428523 0
7.5021791 0.67020899 0.6169259 0
-4.0231194 0.90494424 0.68995398 0
7.5018773 0.86870879 0.61873168 0
-4.0238876 1.111917 0.68464917 0
7.5045915 1.0687703 0.62124187 0
-4.0238581 1.3145379 0.69395745 0
7.5024743 1.269742 0.62383699 0
-4.0253558 1.5126481 0.7046386 0
7.5034394 1.4729028 0.62715977 0
-4.0241036 1.7138563 0.71635544 0
7.5032725 1.6780342 0.63089442 0
-4.0254316 1.8710023 0.72668231 0
7.5024743 1.8853548 0.63507223 0
7.5014162 2.0812273 0.63942122 0
7.5028772 2.2805018 0.64445591 0
7.5041351 2.4827511 0.64996099 0
7.5039659 2.6730452 0.65540349 0
7.5025854 2.86607 0.66120207 0
1.6782968 3.1487799 0.68482339 0
1.9068346 3.0918031 0.69596183 0
2.1282351 3.0911765 0.69536006 0
2.3120728 3.0907402 0.67170405 0
2.5136588 3.0912042 0.68917662 0
2.7001441 3.0910034 0.68729573 0
2.923352 3.0915914 0.65803921 0
3.1144991 3.0914979 0.67809415 0
3.3159986 3.0911014 0.69988787 0
3.5075755 3.0912144 0.72128773 0
3.7232318 3.0924101 0.72676873 0
3.9080927 3.0909648 0.67217737 0
4.1166849 3.0906537 0.60957295 0
4.3183789 3.0914838 0.62845904 0
4.5150781 3.0913479 0.64711952 0
4.7250395 3.0917695 0.66738266 0
4.9253626 3.0895715 0.68680793 0
5.1237631 3.0907307 0.70650744 0
5.3116245 3.0914307 0.72532767 0
5.5096951 3.0917475 0.74534285 0
5.7189112 3.092175 0.76667964 0
5.9127774 3.0910976 0.78653598 0
6.7208738 3.0920684 0.61023968 0
6.9085231 3.091151 0.62410015 0
7.1100049 3.0923307 0.63913566 0
7.3155842 3.0910375 0.6544643 0
7.4945297 3.0442114 0.66634542 0
-4.8666458 5.0111647 0.63993108 0
-4.6828051 5.0109272 0.62778854 0
-4.4893832 5.010499 0.615246 0
-4.2877836 5.0097923 0.60244608 0
-3.8254099 5.0132718 0.79737473 0
-3.6731169 5.009994 0.78501058 0
-3.4598331 5.0106735 0.76867616 0
-3.2835264 5.0106554 0.75559235 0
-3.0873415 5.0100665 0.7414993 0
-2.8840401 5.0099888 0.72755599 0
-2.6686234 5.0082021 0.71331453 0
-2.4810998 5.0118227 0.70213342 0
-2.2744987 5.0078216 0.68964916 0
-2.0809517 5.0122671 0.67957318 0
-1.886605 5.0105729 0.66949725 0
-1.6604371 5.0068665 0.6585108 0
-1.4774275 5.0105186 0.65118933 0
-1.2696004 5.0055485 0.64266396 0
-1.0793111 5.0107312 0.63688785 0
-0.87901253 5.0088201 0.63080323 0
-0.66331989 5.0098286 0.66715544 0
-0.4793424 5.0107265 0.71178883 0
-0.27778986 5.011323 0.70861191 0
-0.088424645 5.0101776 0.70637619 0
3.875972 7.7120037 0.73539686 0
3.8756487 7.9169655 0.75150597 0
3.8736703 8.0908413 0.76517874 0
3.8757017 8.2990131 0.78176653 0
3.8747857 8.4697113 0.79533827 0
-10.87469 8.8143187 0.79696274 0
-10.646047 8.8154678 0.78644967 0
-10.457863 8.8148413 0.77780282 0
-10.272895 8.8134365 0.76933467 0
-10.058782 8.8144197 0.75968999 0
-9.8491125 8.8148708 0.7503038 0
-9.6458254 8.8167238 0.74132812 0
-9.4432802 8.8150091 0.73233342 0
-9.2485256 8.8163948 0.723867 0
-9.052907 8.8128405 0.71525651 0
-8.8667469 8.8144865 0.70731854 0
0.13432588 8.8144655 0.77290529 0
0.33461338 8.8147955 0.77226698 0
0.53526801 8.8156939 0.77208561 0
0.73617131 8.8124237 0.77192706 0
0.93819767 8.8137321 0.77257985 0
1.1412222 8.8150225 0.7736243 0
1.3297963 8.8164778 0.7749784 0
1.5352564 8.8164692 0.77670825 0
1.7421007 8.8154831 0.7787599 0
1.9351984 8.8169975 0.78125143 0
2.1295047 8.8158598 0.78387809 0
2.3257647 8.8147907 0.78688824 0
2.5243263 8.8143444 0.79034007 0
2.7251799 8.8136978 0.79416966 0
2.9294686 8.8154812 0.79862696 0
7.5028458 -3.9214978 0.99588394 0
7.5022106 -3.7232578 0.98482257 0
7.5046225 -3.530551 0.97483093 0
7.5032649 -3.3242033 0.96422416 0
7.5012002 -3.1524134 0.95568597 0
7.5036678 -2.9248111 0.94552892 0
7.5035553 -2.7155192 0.93653303 0
7.5023537 -2.5240555 0.92869681 0
7.503933 -2.3365359 0.92183506 0
7.5042062 -2.1369481 0.91492009 0
7.5016246 -1.9254751 0.90790862 0
7.5018711 -1.7175263 0.90196157 0
-3.9206052 -1.411172 0.91683394 0
-3.7062492 -1.411114 0.93703884 0
-3.4835191 -1.4106433 0.92230588 0
-3.2992957 -1.4106054 0.91413468 0
-3.1182466 -1.4105488 0.90667057 0
-2.8974764 -1.4103158 0.88046819 0
-2.7153711 -1.4110856 0.83586717 0
7.5031056 -1.5259165 0.89718425 0
-4.0248423 -1.3427995 0.92728436 0
7.505198 -1.3227934 0.89283645 0
-4.024581 -1.0865178 0.90966421 0
7.5034046 -1.1208003 0.88869178 0
-4.0247312 -0.89990819 0.91352749 0
7.5027704 -0.92067754 0.88536739 0
-4.025434 -0.68728727 0.96642315 0
7.5039649 -0.72200453 0.88289928 0
-4.0252357 -0.49399388 0.95996368 0
7.5046301 -0.52425021 0.88102823 0
-4.0246749 -0.28691688 0.95526505 0
7.5040064 -0.32711536 0.8796311 0
-4.0240836 -0.10712565 0.95311183 0
7.5022588 -0.13045625 0.87875092 0
-4.0243902 0.15426715 0.95358455 0
7.500432 0.079021387 0.87850583 0
-4.0232182 0.31380987 0.95555282 0
7.5030918 0.2755968 0.87943375 0
-4.0241985 0.52116114 0.96079141 0
7.5015869 0.47242773 0.88052148 0
-4.0246463 0.71338785 0.96766454 0
7.5031953 0.67009652 0.88259846 0
-4.0246353 0.91789579 0.90555769 0
7.5034666 0.86863458 0.88517755 0
-4.0240726 1.1096606 0.91509432 0
7.5027103 1.0682328 0.88827372 0
-4.024148 1.312654 0.92400599 0
7.5022025 1.269344 0.89207751 0
-4.0237422 1.5076847 0.93347633 0
7.5026312 1.4723794 0.89665574 0
-4.0234609 1.7139001 0.87398934 0
7.5032287 1.6776189 0.90196377 0
-4.0257282 1.8715172 0.88686424 0
7.5038419 1.8852489 0.90797138 0
7.5030069 2.0811894 0.91407746 0
7.5030141 2.2799878 0.92094415 0
7.5038629 2.482065 0.92859775 0
7.5022182 2.6718001 0.93602824 0
7.5017672 2.8650703 0.94425315 0
1.7044556 3.10848 0.87263411 0
1.9137603 3.0914192 0.89929676 0
2.1276345 3.0901783 0.9440034 0
2.3153613 3.0913973 0.87901109 0
2.514241 3.0903645 0.90590632 0
2.7197089 3.0902705 0.90048611 0
2.9088871 3.0915384 0.88247287 0
3.1000056 3.0903294 0.86006057 0
3.3163271 3.0905204 0.86281961 0
3.5092404 3.0918076 0.88966078 0
3.7137842 3.092196 0.91872478 0
3.9283209 3.0922272 0.92718107 0
4.1018682 3.0919201 0.84598023 0
4.3196306 3.0915704 0.81746328 0
4.5161815 3.0913255 0.84182078 0
4.7060966 3.0904474 0.86563569 0
4.9107757 3.0914805 0.89182627 0
5.1275282 3.0922289 0.91987109 0
5.314136 3.0921135 0.9442184 0
5.5211806 3.0910904 0.97143775 0
5.7182198 3.0910244 0.99764371 0
6.1226373 3.0927227 0.80835646 0
6.3113403 3.0919518 0.82798594 0
6.5096016 3.0909507 0.8487376 0
6.7205725 3.0911913 0.87101853 0
6.9093847 3.0907917 0.89104033 0
7.1063962 3.0900214 0.91201782 0
7.316154 3.0905418 0.93452644 0
7.4932981 3.0353591 0.95102465 0
-4.8641381 5.0099397 0.88637125 0
-4.6825943 5.0120821 0.87016219 0
-4.4719629 5.0099525 0.85133666 0
-4.2555556 5.0126686 0.83290303 0
-4.1244726 5.0123396 0.82180989 0
-3.9416595 5.0120397 0.80668175 0
-3.4732563 5.0092773 0.98676962 0
-3.2837455 5.0114317 0.96919346 0
-3.0720367 5.010457 0.94990063 0
-2.8691099 5.0102558 0.93230903 0
-2.6862202 5.0096755 0.91713482 0
-2.4804125 5.0090642 0.90093261 0
-2.298948 5.0095654 0.88760024 0
-2.095325 5.0085545 0.873321 0
-1.8854227 5.0101852 0.86009991 0
-1.7032309 5.0075836 0.84894663 0
-1.4760549 5.0093832 0.83702248 0
-1.2797418 5.0108323 0.82788813 0
-1.0730106 5.0102534 0.90652931 0
-0.87779069 5.0104361 0.90372497 0
-0.69154197 5.0113673 0.91375875 0
-0.47784194 5.0107718 0.98265392 0
-0.27627867 5.0112519 0.97864139 0
-0.086933292 5.0106397 0.97608083 0
-14.946796 7.2953444 0.95742899 0
-14.950534 7.5575852 0.96380687 0
-14.947068 7.7535706 0.96836007 0
-14.947251 7.9535675 0.97329843 0
-14.947817 8.1560411 0.97841573 0
-14.947358 8.360261 0.98362255 0
-14.946925 8.5669117 0.98899204 0
-14.871439 8.7783489 0.99078262 0
3.8760545 8.6720839 0.81156635 0
-14.661519 8.8165312 0.98118013 0
-14.487991 8.8157911 0.97240692 0
-14.263546 8.8163586 0.96113688 0
-14.04226 8.8157759 0.95003635 0
-13.827043 8.8159447 0.93930256 0
-13.670234 8.817152 0.93153882 0
-13.512512 8.8159409 0.92368627 0
-13.303504 8.8127098 0.91326749 0
-13.108264 8.8157663 0.90375203 0
-12.865252 8.8163462 0.89187151 0
-12.62698 8.816247 0.88026077 0
-12.486003 8.815587 0.87340224 0
-12.324142 8.8144855 0.86554956 0
-12.078396 8.8154688 0.85376054 0
-11.858241 8.8144236 0.84320527 0
-11.642854 8.8133526 0.83293176 0
-11.479732 8.8167105 0.82532656 0
-11.271708 8.8144035 0.8154701 0
-11.072405 8.8155766 0.80618918 0
3.1357594 8.8146563 0.8032676 0
3.3449826 8.8135242 0.80831194 0
3.540508 8.8146677 0.81352311 0
3.7386932 8.8145914 0.81902272 0
7.505559 -4.0741162 1.0049174 0
7.5024004 -2.1360748 1.1919768 0
7.5027156 -1.9254258 1.1833738 0
7.5029221 -1.7174941 1.1756831 0
-3.9091599 -1.4109467 1.1366597 0
-3.7058349 -1.4112936 1.0843881 0
-3.5356443 -1.4106991 1.0408154 0
7.5027313 -1.5256027 1.1692872 0
-4.0249867 -1.3418055 1.160744 0
7.5025401 -1.3221315 1.1633148 0
-4.0250878 -1.0855426 1.1409929 0
7.5016766 -1.113719 1.1579437 0
-4.0254145 -0.8855896 1.1283994 0
7.5047956 -0.92080927 1.1543727 0
-4.0246706 -0.68735957 1.1180804 0
7.5037079 -0.7219131 1.1508256 0
-4.023531 -0.48586604 1.1100426 0
7.5023174 -0.52405566 1.1480844 0
-4.0232244 -0.28690922 1.104921 0
7.5034118 -0.32709086 1.1465297 0
-4.0243845 -0.1071949 1.1028945 0
7.5009108 -0.13048002 1.1452621 0
-4.0254798 0.15428396 1.1036482 0
7.5035501 0.078983687 1.1456084 0
-4.0249515 0.31398597 1.1061058 0
7.5033441 0.275482 1.1463567 0
-4.0242815 0.51316303 1.1114349 0
7.5024643 0.47230646 1.147837 0
-4.0233169 0.71474165 1.1193769 0
7.5027094 0.66983962 1.1502937 0
-4.0243883 0.91349339 1.1302725 0
7.5045195 0.86850423 1.1538404 0
-4.0233798 1.1123923 1.1430693 0
7.5041041 1.0881689 1.1583273 0
-4.0234022 1.3195752 1.1591806 0
7.5041842 1.2693506 1.1628499 0
-4.0227489 1.5208204 1.1623826 0
7.5027456 1.4720299 1.1684487 0
-4.0247402 1.7183977 1.1198604 0
7.5048466 1.6775569 1.1755134 0
-4.0245147 1.8715292 1.1314559 0
7.5046897 1.8850056 1.1831253 0
7.5032358 2.0807331 1.1908836 0
7.5045338 2.2799096 1.1999301 0
2.3161898 3.0914466 1.0221531 0
2.516115 3.0916231 1.0539703 0
2.7163124 3.0907559 1.08725 0
2.9235539 3.091568 1.1235628 0
3.1257782 3.0908029 1.0876616 0
3.3190563 3.0904567 1.121645 0
3.5086188 3.0903525 1.059705 0
3.7146947 3.0920782 1.094895 0
3.9165688 3.0903614 1.1296606 0
4.1282539 3.0905046 1.0916244 0
4.3199019 3.0909498 1.0083554 0
4.5166998 3.0908639 1.0385491 0
4.7269826 3.0914564 1.0713692 0
4.9302335 3.0910559 1.1034155 0
5.125648 3.0903049 1.1345654 0
5.337883 3.0926719 1.1690812 0
5.5104451 3.0906391 1.1970309 0
5.9136271 3.0907855 1.0238361 0
6.1202917 3.0907867 1.0517682 0
6.3088217 3.0899739 1.0773637 0
6.5124321 3.0915387 1.1053585 0
6.7229829 3.0915494 1.1343627 0
6.9260473 3.0902386 1.1624112 0
7.1117516 3.0916135 1.188354 0
-4.8653021 5.0125046 1.1356795 0
-4.6790843 5.0097175 1.1139579 0
-4.4858861 5.0094247 1.0921632 0
-4.3004417 5.0128808 1.0721486 0
-4.077631 5.010138 1.0479145 0
-3.874012 5.0112801 1.026842 0
-3.6848006 5.0116053 1.0077645 0
-3.2879333 5.0107508 1.1854786 0
-3.0730691 5.0100117 1.1617489 0
-2.8662348 5.0099173 1.1400151 0
-2.6892519 5.0097432 1.1222908 0
-2.4736786 5.0086565 1.1016474 0
-2.2749548 5.0113821 1.0844502 0
-2.0664282 5.0086284 1.0666108 0
-1.8877668 5.0076933 1.0526545 0
-1.694387 5.0090446 1.0391352 0
-1.4755682 5.0112362 1.0254554 0
-1.2722214 5.0103374 1.1030487 0
-1.0842379 5.0099015 1.1742309 0
-0.87617886 5.009872 1.1808419 0
-0.67708784 5.0092916 1.1724973 0
-0.47857967 5.0107551 1.1664127 0
-0.2752001 5.0103016 1.1615895 0
-0.095778368 5.0118484 1.1593342 0
3.8761139 7.7088218 1.0395622 0
3.8743889 7.9107623 1.0617437 0
3.8764842 8.0929279 1.0820214 0
3.8748884 8.274456 1.1021427 0
3.8746264 8.504735 1.1278625 0
3.8748577 8.7056198 1.1504151 0
-9.6407061 8.8142786 1.1995553 0
-9.4401636 8.8143635 1.1855431 0
-9.2447186 8.8150444 1.1720456 0
-9.0524797 8.8147364 1.1588322 0
-8.8641396 8.8142195 1.1459937 0
