# .PCD v0.7 - Point Cloud Data file format
VERSION 0.7
FIELDS x y z intensity
SIZE 4 4 4 4
TYPE F F F F
COUNT 1 1 1 1
WIDTH 512
HEIGHT 1
VIEWPOINT 0 0 0 1 0 0 0
POINTS 512
DATA ascii
-14.891542 8.772028 -0.50220418 0
-14.890146 -3.8919406 -0.48727661 0
-3.3889134 0.17428535 -0.42852938 0
-6.4247665 -8.3779125 -0.30364397 0
-5.4315462 -8.383544 -0.34904042 0
-5.8990917 -6.412571 -0.30122054 0
-6.3222857 -6.1569195 -0.31976205 0
-6.8012333 -6.0196929 -0.34379846 0
-9.9080868 -5.1878967 -0.31518325 0
-11.777624 -1.9832544 -0.32585508 0
2.5985909 -1.7321906 -0.30807221 0
-3.9600444 -1.4025087 -0.31908053 0
-3.8976436 -1.4142727 -0.31488252 0
-3.2702339 -1.4003756 -0.38768399 0
-0.8539238 -1.4054213 -0.3455036 0
0.096030712 -1.4072969 -0.31265971 0
0.1075511 -1.4170382 -0.30059901 0
-3.9812114 -0.048361674 -0.3276996 0
-3.3436866 0.066584483 -0.39853689 0
-0.75338459 0.097129852 -0.34826851 0
-3.9560437 0.19124891 -0.33374023 0
-1.1330669 0.11396455 -0.36124718 0
-3.9642704 0.2087886 -0.37477189 0
0.89283848 0.85137802 -0.32571557 0
-2.3382869 1.6100574 -0.36697638 0
-3.9635248 1.895914 -0.36307377 0
-3.9654315 1.9141673 -0.33373842 0
0.22313261 2.8428676 -0.35909146 0
1.5008526 3.2270813 -0.31106347 0
-4.913815 4.9869719 -0.36340234 0
-4.9178829 5.0087819 -0.35569438 0
-4.8771005 5.0055633 -0.38173318 0
-3.1927228 5.0082326 -0.31403202 0
-14.884495 8.8185072 -0.30306759 0
4.2985616 -8.3390102 -0.2460411 0
4.3045521 -7.9937606 -0.20899516 0
7.5674639 -7.9943638 -0.21843144 0
4.2974658 -7.7829814 -0.27247009 0
4.2998381 -7.5262718 -0.2326234 0
7.5582643 -7.5557728 -0.23314482 0
4.300735 -7.3665948 -0.26388422 0
4.2908306 -6.9913011 -0.25929466 0
-5.8505201 -6.3626237 -0.29936802 0
4.3008022 -5.8603711 -0.24790514 0
-9.8717823 -5.1891661 -0.2702179 0
4.3075275 -4.3594203 -0.27922913 0
0.89213133 -4.0026236 -0.29982659 0
1.0621833 -3.8794796 -0.23908602 0
4.2954316 -3.884954 -0.23723733 0
2.7288849 -1.6054118 -0.29627246 0
1.9547889 -1.5607011 -0.28650934 0
2.4276845 -1.5567657 -0.29386556 0
2.6338212 -1.5518068 -0.22959675 0
-3.9650555 -1.4100208 -0.2805897 0
2.6308146 -1.4109167 -0.24136162 0
-3.9661469 -1.3955913 -0.22169746 0
-3.9669924 1.9133914 -0.26020586 0
7.5541477 2.1586142 -0.2304149 0
4.7144265 2.2036724 -0.27119595 0
1.7197959 3.088064 -0.27219105 0
5.7009401 3.0975795 -0.25039807 0
1.716218 3.1291192 -0.26932654 0
1.6962581 3.222482 -0.20258538 0
-4.907856 5.0145359 -0.23453729 0
0.058300212 5.0250173 -0.24010061 0
-14.894791 8.7850513 -0.24195427 0
-14.813002 8.8053827 -0.25799972 0
4.2964468 -8.3188534 -0.15472376 0
7.5594058 -8.3714209 -0.13033585 0
7.5618758 -7.9071498 -0.19995831 0
-5.8880949 -6.3800607 -0.17888212 0
4.2954373 -3.9008272 -0.1096337 0
1.0673144 -3.8744972 -0.15863352 0
4.2936506 -3.8803401 -0.1496349 0
2.6316755 -1.54752 -0.14725962 0
-3.9622161 -1.4039252 -0.17726362 0
2.629318 -1.4130725 -0.15783216 0
-3.9659379 1.9268107 -0.1575066 0
1.715129 3.0899351 -0.14816676 0
6.8797021 3.0989599 -0.19797365 0
7.5528455 3.0829942 -0.18405579 0
1.7095499 3.1014619 -0.13571724 0
1.7081395 3.2251661 -0.13637219 0
-4.9192162 5.0118542 -0.10617007 0
0.071713805 6.9646244 -0.17269473 0
-14.82197 8.7958326 -0.17524204 0
-14.850708 8.8056765 -0.14421381 0
3.9159174 8.8087492 -0.19655415 0
4.2954817 -8.3589783 -0.021621335 0
4.3072591 -8.384057 -0.065269627 0
7.5661645 -8.3724642 -0.020802841 0
-5.8850956 -6.3868608 -0.0042393357 0
-9.9379873 -5.1820326 -0.056883544 0
1.0605288 -3.8764277 -0.054323077 0
4.2927265 -3.8788853 -0.053325906 0
2.6312733 -1.5497555 -0.044254415 0
-3.9531319 -1.41084 -0.028610038 0
2.6297293 -1.4136961 -0.050781876 0
-3.96908 1.8954669 -0.016033411 0
-3.968235 1.9206432 -0.062086303 0
1.713995 3.0938969 -0.066759422 0
7.5648704 3.0774703 -0.075244308 0
1.6959721 3.2208149 -0.075237647 0
1.7052739 3.2116165 -0.020189766 0
-4.9228225 4.9904203 -0.092213981 0
-4.8802519 4.9985943 -0.060529716 0
0.05933851 4.9913535 -0.032557622 0
-4.9175425 5.0063019 -0.045566782 0
-4.8897247 5.0070934 -0.010890484 0
0.048444331 5.0110059 -0.092369422 0
-14.847729 8.8015928 -0.059876192 0
4.3066759 -8.3870316 0.06962809 0
7.5538473 -8.3831224 0.036779933 0
-5.8963938 -6.4149957 0.07846988 0
-9.9533119 -5.1763506 0.061990194 0
4.2939873 -3.9046679 0.024691012 0
1.0602375 -3.877636 0.062946126 0
4.2839708 -3.8805399 0.023132123 0
-11.859758 -2.0322421 0.0037322566 0
2.6320276 -1.5537933 0.055759739 0
-3.962157 -1.4042822 0.06381277 0
2.6281128 -1.4140979 0.050979916 0
-3.9733837 1.9231672 0.050952718 0
1.712449 3.0906878 0.041191764 0
1.6956962 3.2191703 0.051814497 0
1.7029495 3.2006106 0.095072627 0
-4.9150443 5.0074172 0.031265736 0
-4.8781366 5.0073113 0.041980486 0
0.049312264 5.0080776 0.082523122 0
0.065018058 6.9617825 0.080749191 0
-14.90745 8.7703152 0.022100143 0
-14.891096 8.8053379 0.010746807 0
4.2953968 -8.3419228 0.19182217 0
4.3038883 -8.3857307 0.19268422 0
7.558928 -8.3647394 0.13071097 0
-5.8955908 -6.4227891 0.13755617 0
-5.8949566 -6.3967795 0.11960202 0
1.0542074 -3.8734202 0.13449505 0
4.289784 -3.8812125 0.15652108 0
2.629894 -1.5521773 0.15408899 0
-3.9710615 -1.4152598 0.1612377 0
2.6263669 -1.4135076 0.15110706 0
-3.9700351 1.9368553 0.17197391 0
1.6970646 3.0972953 0.13918486 0
1.7099867 3.0924518 0.16539648 0
7.5527267 3.0826128 0.10073911 0
1.6952256 3.2171559 0.17886186 0
-4.9344172 4.996048 0.17948267 0
0.057325542 4.9971075 0.14598799 0
-4.9098272 5.0106812 0.16709834 0
3.9173863 8.8084784 0.13998179 0
4.2967148 -8.3594227 0.23492944 0
7.556828 -8.3695574 0.27023196 0
-5.8726301 -6.36621 0.24723896 0
-9.9376011 -5.1821861 0.23387736 0
-9.89011 -5.1896963 0.27431411 0
4.2927079 -3.9030969 0.29369754 0
1.0617911 -3.8762667 0.24898021 0
4.2888098 -3.8681498 0.27152669 0
-11.886547 -2.0422144 0.2723819 0
2.6293001 -1.5510319 0.2542375 0
-3.9610291 -1.4203991 0.24262609 0
2.6233532 -1.4132531 0.25087699 0
-3.9751444 1.926026 0.25279343 0
1.7111167 3.0919354 0.2662245 0
1.7023503 3.1977091 0.2103425 0
-4.9240637 5.0069299 0.26607189 0
-4.881465 5.0080237 0.28685236 0
0.050253451 5.0124574 0.25778884 0
-14.904629 8.7804642 0.29135853 0
4.2999144 -8.3882008 0.32958689 0
4.3035021 -8.3791256 0.32754415 0
7.5581064 -8.367816 0.34500164 0
1.057588 -3.8740883 0.34022373 0
4.2910156 -3.8763084 0.31381571 0
2.5799873 -1.5524151 0.33635968 0
2.6290858 -1.5519321 0.35866326 0
-3.9582367 -1.4089794 0.33809733 0
2.6239014 -1.4130183 0.3504265 0
-3.9755316 -1.398612 0.34717515 0
-3.9739103 1.8947703 0.33112583 0
-3.9759605 1.924999 0.34839025 0
1.6979637 3.099144 0.34275675 0
1.7073202 3.0895033 0.37368491 0
7.5466833 3.0798132 0.38545939 0
1.6993175 3.1833758 0.32475591 0
1.7102766 3.1002402 0.34819108 0
1.6970677 3.2195261 0.30662403 0
0.055956066 4.9994707 0.32510388 0
-4.9150219 5.0065317 0.39269793 0
-4.8863964 5.0039606 0.34040397 0
0.059048176 6.9563389 0.33416608 0
-14.904366 8.7842836 0.38463938 0
-14.899594 8.7869234 0.3703222 0
4.293026 -8.3734045 0.45332018 0
7.55092 -8.3812952 0.41198605 0
-5.8876934 -6.3816934 0.42845747 0
-9.9517365 -5.1803226 0.49661902 0
4.2909818 -3.908463 0.42943606 0
1.0562488 -3.8755202 0.4515081 0
4.285955 -3.8735256 0.4440991 0
2.5830545 -1.5520713 0.42934665 0
2.6263227 -1.5553573 0.46101928 0
-3.9730229 -1.4111671 0.4082624 0
2.6219976 -1.4121872 0.45880705 0
-3.9750266 1.9205515 0.44297981 0
1.6966116 3.0946679 0.42981085 0
1.705155 3.0916336 0.44813964 0
1.6960838 3.2216747 0.44065285 0
-4.8957434 4.9947062 0.45030054 0
-4.9072847 5.0098171 0.43482161 0
-4.8963242 5.0101385 0.45113564 0
0.051055074 5.0026903 0.43276852 0
-14.861578 8.8056183 0.46355081 0
3.9200022 8.8107815 0.47702298 0
4.2953911 -8.3823786 0.54761171 0
7.5533242 -8.3749084 0.53774214 0
-5.9009953 -6.4089966 0.5183059 0
-5.8991413 -6.411449 0.57540905 0
-5.8995314 -6.3846569 0.54021639 0
4.2897882 -3.9107656 0.56607383 0
1.0478179 -3.8736565 0.56799853 0
4.2841072 -3.8721128 0.56654346 0
2.5813642 -1.5514047 0.52382439 0
2.6251047 -1.5514659 0.56187129 0
-3.9720123 -1.4087186 0.56738216 0
2.6200418 -1.411545 0.56383872 0
-3.977195 1.933198 0.53198409 0
1.6969128 3.0967197 0.52543592 0
1.7081316 3.0924287 0.54683232 0
1.6940473 3.2141643 0.56342256 0
0.05508852 4.9991808 0.50494331 0
-4.9426336 5.0118065 0.5572964 0
0.055086732 6.943697 0.58751571 0
-14.903707 8.8038054 0.50761223 0
-14.841307 8.8042088 0.56180209 0
4.2899766 -8.3501949 0.65115076 0
7.5526972 -8.3683262 0.6418649 0
-5.906117 -6.4078283 0.68001109 0
-5.8986435 -6.3822904 0.67145395 0
-9.8646193 -5.1992702 0.60337681 0
1.0566963 -3.8756931 0.65258974 0
4.2816586 -3.8729811 0.66742361 0
-11.86615 -2.0260258 0.60010225 0
2.6215508 -1.5532334 0.65286237 0
-3.9717078 -1.4006164 0.6383183 0
2.6191542 -1.4097213 0.65892726 0
-3.9728251 -1.3952099 0.66813457 0
-3.9775391 1.8936549 0.67914009 0
-3.9796302 1.9276599 0.65230626 0
1.6957383 3.0926466 0.64911079 0
1.7096426 3.0961218 0.66527307 0
7.5508556 3.085556 0.67846358 0
1.6945111 3.2110541 0.68800473 0
-4.9141107 5.0101247 0.62553561 0
-4.8810854 5.0074415 0.6405679 0
0.052595582 5.0082388 0.64862692 0
-14.870423 8.8074417 0.68611538 0
4.2882671 -8.3781176 0.73499453 0
7.5479584 -8.3768415 0.75786787 0
-9.9625702 -5.175344 0.78501093 0
4.2899685 -3.9052305 0.70281607 0
1.0540791 -3.8751113 0.77384001 0
4.2769251 -3.8773558 0.7546941 0
2.6249635 -1.5491549 0.75959867 0
-3.9342132 -1.4128096 0.72146237 0
2.6207819 -1.4115922 0.77367413 0
-3.980376 1.9316317 0.73716521 0
1.6934882 3.0934932 0.7675032 0
1.7134354 3.0916593 0.72958648 0
1.6886125 3.147387 0.78401679 0
-4.9135361 5.0026927 0.75991309 0
-4.8839025 5.0045795 0.74197412 0
0.052933972 5.0084782 0.78828025 0
-14.911765 8.7605944 0.70278305 0
-14.906738 8.8033657 0.71229374 0
4.2911973 -8.3626814 0.83345157 0
7.5486617 -8.3677387 0.87882024 0
-5.89991 -6.3807969 0.86270928 0
-9.9052448 -5.1894693 0.82042134 0
4.2884364 -3.9093533 0.84278035 0
1.0493174 -3.880296 0.86417758 0
1.1356187 -3.8800747 0.81735909 0
4.2843213 -3.8716044 0.84926695 0
-11.892466 -2.0390129 0.87363797 0
-3.9785058 -1.410161 0.81997937 0
-3.9814942 1.9310838 0.8438707 0
1.6957334 3.0933197 0.8739354 0
1.7095861 3.0905538 0.82761902 0
1.695207 3.2387393 0.83163679 0
-4.9163599 5.008522 0.85276383 0
0.050360203 5.0141163 0.87154078 0
0.046929479 6.9458551 0.84323996 0
-14.855906 8.8073378 0.80966848 0
3.9224758 8.8127508 0.81542158 0
4.2863164 -8.3603659 0.9285267 0
7.5478454 -8.3747473 0.95160973 0
-5.9031553 -6.4016376 0.95913297 0
-5.8958969 -6.3690686 0.96128345 0
4.2884521 -3.9046462 0.98289984 0
1.0469822 -3.8773055 0.94918823 0
1.104506 -3.879631 0.96929282 0
4.277658 -3.8741148 0.98088121 0
-3.981277 -1.4006959 0.96029234 0
-3.8788853 -1.413232 0.98176157 0
-3.9824042 1.8649457 0.98443961 0
-3.9832201 1.9237646 0.95900732 0
1.6938934 3.0912025 0.99635214 0
1.7046646 3.0934811 0.95897287 0
7.5473485 3.0794146 0.95865136 0
1.690695 3.1438575 0.94678217 0
1.6929817 3.2332866 0.96542168 0
-4.9192786 5.0091572 0.96442282 0
0.053883255 5.0108399 0.96896857 0
-14.902438 8.7909927 0.97534788 0
4.2871566 -8.3541307 1.065268 0
7.5483665 -8.366868 1.0407779 0
-5.9070425 -6.3823867 1.0988601 0
-5.8978262 -6.3975015 1.013923 0
-9.9585266 -5.176857 1.051615 0
1.048527 -3.8759079 1.040767 0
-3.9736662 -1.4122783 1.0529659 0
-3.9824767 -1.3954012 1.0434402 0
-3.983247 1.9280369 1.0641165 0
1.6950867 3.0931287 1.0822521 0
1.6863585 3.1000519 1.0235484 0
-4.9101782 5.0176744 1.0446399 0
-4.8918986 5.0096736 1.0560148 0
0.046836078 5.0275302 1.0599973 0
0.042589307 6.9342976 1.09918 0
-14.912553 8.7828255 1.0536294 0
4.2883072 -8.3505716 1.1719952 0
7.5430756 -8.3695974 1.1522038 0
4.2918472 -8.2741385 1.1483079 0
-5.9074044 -6.3973074 1.1108353 0
-9.8841162 -5.1914692 1.1460216 0
1.04576 -3.8763647 1.1440555 0
4.2717509 -3.8738008 1.1274545 0
-11.863119 -2.01963 1.1975801 0
-3.97648 -1.4042327 1.1144586 0
-3.9847856 1.7915626 1.1365821 0
-3.9842372 1.9323099 1.1566883 0
1.6992867 3.0892365 1.1611252 0
1.6928053 3.1025724 1.1920893 0
-4.934247 5.0102439 1.1485536 0
-4.8781309 5.0034008 1.144702 0
-4.7642012 5.009047 1.183525 0
0.05478444 5.007576 1.1509874 0
-14.91841 8.8015394 1.1759171 0
3.9226708 8.8095779 1.1553465 0
7.5467081 -8.3651905 1.2449573 0
-5.893115 -6.3714061 1.2975941 0
1.0497969 -3.8751493 1.2320131 0
4.2570238 -3.8700073 1.2818644 0
-3.9911034 -1.4116819 1.2536683 0
-3.9817615 -1.3996176 1.2839177 0
-3.9854269 1.9221467 1.239856 0
1.6955262 3.0921807 1.2583996 0
1.7068884 3.0954075 1.292294 0
7.5504613 3.0803461 1.2489265 0
-4.9249306 5.007009 1.2534652 0
-4.6006508 5.0059443 1.2393308 0
0.040239275 5.0568533 1.2561278 0
-14.916573 8.7886047 1.2176136 0
-14.902937 8.8068419 1.2285721 0
-14.839716 8.8133459 1.2013562 0
4.2909727 -8.3750763 1.3592024 0
7.5473328 -8.3674021 1.3526087 0
4.2837768 -8.2983284 1.3302531 0
-5.9067469 -6.4047861 1.3887991 0
-9.9135027 -5.1876197 1.3687853 0
-9.879446 -5.1991611 1.3328931 0
1.0386536 -3.8760421 1.3497931 0
-3.9703572 -1.4111868 1.3390858 0
-3.9815061 -1.3979051 1.3349741 0
-3.9862695 1.8993969 1.3117554 0
-3.9894662 1.9161589 1.3542774 0
1.6954709 3.091898 1.3169768 0
-4.9201751 5.0075073 1.3624536 0
-4.894362 5.0096073 1.311492 0
0.055686183 5.0031104 1.3354019 0
0.037003994 6.9269104 1.3579152 0
-14.828964 8.8097486 1.367631 0
4.2847385 -8.383091 1.4424694 0
4.3006754 -8.3774929 1.4452469 0
7.5451655 -8.3654079 1.4461033 0
-5.9057417 -6.3944712 1.4020879 0
-5.8952789 -6.3828483 1.4540486 0
1.0413238 -3.8792651 1.4394821 0
-11.889778 -2.0355978 1.4765451 0
-3.9886537 -1.4056506 1.4434475 0
-3.9875913 1.783458 1.4617434 0
-3.9916732 1.9227349 1.4511367 0
1.6845901 3.0979242 1.4138242 0
1.694566 3.1004934 1.4041756 0
-4.910224 5.0123043 1.4702101 0
0.037711024 5.0648537 1.4516394 0
3.9194455 8.7987003 1.4966202 0
-14.922956 8.8022385 1.4813111 0
-14.859682 8.806632 1.4755363 0
4.2848806 -8.3721209 1.55758 0
7.5457063 -8.363657 1.5429853 0
-5.9086161 -6.3831239 1.5361977 0
-3.9837425 -1.4054003 1.5954434 0
-3.9953766 1.9210398 1.5482262 0
1.7010391 3.0960174 1.5059487 0
7.5461226 3.0782337 1.541028 0
1.6923034 3.1018476 1.5206819 0
-4.917675 4.9998178 1.5994308 0
-4.9321532 5.0086322 1.5606414 0
-4.8806648 5.0068073 1.5508935 0
-14.900393 8.7921877 1.5825574 0
-14.853107 8.8075447 1.5996587 0
4.2890549 -8.3733864 1.6634736 0
7.5439262 -8.3663473 1.6598063 0
4.2788849 -8.2745705 1.6165822 0
-9.9511194 -5.1824675 1.6526766 0
-3.9821837 -1.4147906 1.6667869 0
-3.9886851 -1.3993418 1.6116829 0
-3.9887369 1.9178748 1.6634786 0
1.6925468 3.1024952 1.6250346 0
-4.9372482 5.0083618 1.6410234 0
0.03206265 7.0098 1.6396092 0
-14.920067 8.7743931 1.6602407 0
-14.888752 8.8179197 1.6103399 0
4.2890415 -8.3730631 1.7182786 0
7.5367723 -8.3636484 1.7739176 0
-5.8752832 -6.3570786 1.7331641 0
-11.848459 -2.0130134 1.7964203 0
-3.9883304 -1.396567 1.7030562 0
-3.9967046 1.776588 1.7917017 0
-3.9939692 1.9242996 1.7491678 0
-4.9398761 5.0124097 1.7623576 0
-4.8854356 5.0090885 1.7417867 0
-14.929643 7.8438692 1.7963892 0
-14.257619 8.8108587 1.7956508 0
4.281909 -8.356926 1.8441368 0
7.5452232 -8.3572121 1.8453429 0
-5.9058228 -6.387702 1.8316919 0
-5.8592701 -6.3504753 1.8914194 0
-9.59021 -5.2734175 1.8863659 0
-9.9137573 -5.1945152 1.8896654 0
-3.9715645 -1.4101859 1.8564332 0
-3.9931293 1.9091982 1.8282142 0
7.552505 3.0804901 1.8392849 0
-4.942358 5.0128965 1.8482848 0
-14.927143 8.7954664 1.8849036 0
-10.59302 8.8151045 1.8719615 0
3.9233985 8.8038988 1.8441962 0
4.2824478 -8.3781233 1.9531136 0
7.5457873 -8.3557034 1.906341 0
-5.9148445 -6.3784151 1.9718585 0
-11.878996 -2.0361915 1.9887691 0
-3.959111 -1.4133859 1.9845533 0
-3.9973302 -1.3992674 1.9441684 0
-4.0038071 1.9171033 1.9358263 0
-3.9910839 1.9229991 1.9953579 0
-4.9140048 5.0095458 1.9228998 0
-4.8814974 5.0092955 1.9607079 0
0.024019003 7.0099669 1.9102721 0
-14.9247 8.1932297 1.9470726 0
-14.926155 8.5642071 1.9168698 0
-14.660896 8.8070698 1.9199657 0
-13.119852 8.8058767 1.9945968 0
-7.2397914 -8.3877439 2.0586538 0
-7.0054555 -8.3911781 2.0696411 0
4.2825227 -8.3644505 2.0439205 0
7.5393744 -8.3652782 2.0619891 0
-8.8595343 -5.4796224 2.0455527 0
-3.995091 -1.4197857 2.0185199 0
-3.9988875 1.1879892 2.0865476 0
-3.9965715 1.9028996 2.0054705 0
-4.9311628 5.0041285 2.0073485 0
-4.8013673 5.0115595 2.0718012 0
-4.6252975 5.0091448 2.0868046 0
-4.499074 5.0125952 2.015202 0
-4.3135905 5.0144963 2.0150943 0
-3.6652353 5.0123272 2.0730166 0
-2.978539 5.0095005 2.0922086 0
-6.7679024 -8.3949804 2.124979 0
7.5450187 -8.3530903 2.1507835 0
4.2851553 -8.0754232 2.1847413 0
-7.1214614 -5.9396892 2.1093228 0
7.5534248 -3.2651818 2.1666636 0
-3.304122 -1.4118555 2.1634192 0
-3.9972396 0.60052288 2.1325355 0
-4.0020571 1.9230795 2.1400242 0
-3.9985676 1.9278692 2.1010509 0
7.5505548 3.0793421 2.1403897 0
-4.4977612 5.0116167 2.1192081 0
-4.1798391 5.0186782 2.1216385 0
-3.4157543 5.0135775 2.1205239 0
-3.3084097 5.0171061 2.1017838 0
-3.2429562 5.0054731 2.1243687 0
-2.1164942 5.0109382 2.1417813 0
-1.5309925 5.0167384 2.1337173 0
-1.4767728 5.0142851 2.1491163 0
-1.1466098 5.0166106 2.1388979 0
-0.17475176 5.0153046 2.1678998 0
-14.896724 8.3764019 2.1682277 0
3.9240305 8.6389389 2.1609404 0
-10.076897 8.8120728 2.1649084 0
3.5656142 8.812336 2.1668599 0
4.2820606 -8.3768806 2.2367458 0
5.9334364 -8.3794403 2.2825832 0
7.0250793 -8.3710442 2.2903056 0
4.2872453 -8.0692549 2.2283075 0
7.5494795 -7.6994824 2.2501357 0
7.5416288 -6.8142815 2.2903025 0
7.5548229 -7.7597418 2.3095703 0
7.5205755 -7.4549389 2.3285234 0
7.5220003 -5.7433224 2.3227937 0
